# .PCD v0.7 - Point Cloud Data file format
VERSION 0.7
FIELDS x y z intensity
SIZE 4 4 4 4
TYPE F F F F
COUNT 1 1 1 1
WIDTH 1413
HEIGHT 1
VIEWPOINT 0 0 0 1 0 0 0
POINTS 1413
DATA ascii
-13.969396 10.44462 1.0088912 10
-13.951389 12.425483 1.0346802 11
-13.902734 16.767241 1.0705074 15
-13.989378 28.387032 1.0492744 10
-13.90931 12.247416 1.1283668 10
-13.956438 12.359209 1.1351172 10
-13.934439 15.894433 1.1109325 11
-13.914124 15.984988 1.1569051 14
-13.913073 16.179783 1.1242198 14
-13.936781 16.779772 1.1963167 15
-13.912446 16.90803 1.1672174 15
-13.953857 27.550226 1.1579626 11
-13.916646 28.081102 1.1661361 10
-13.93153 10.377365 1.2642373 11
-13.950008 11.656997 1.2191077 10
-13.948809 12.352541 1.2355324 10
-13.913198 13.651644 1.2242877 11
-13.939631 15.261346 1.2164913 13
-13.901051 15.820702 1.298175 14
-13.932337 15.935757 1.2811192 14
-13.978897 16.279438 1.2755997 14
-13.92285 16.318104 1.2800885 13.5
-13.931095 16.462542 1.2712474 13.5
-13.952821 16.561518 1.2257706 12.5
-13.918427 16.950401 1.2921855 14
-13.958111 17.098726 1.2984345 15
-13.906474 17.182602 1.2724178 14
-13.926147 17.25103 1.2831911 14.666667
-13.936728 17.565319 1.2937546 14.333333
-13.991173 17.665409 1.2872788 14
-13.992687 17.883251 1.2982132 14
-13.901751 18.151577 1.2992085 14
-13.950464 26.32687 1.2525814 13
-13.955253 26.495237 1.2766775 12
-13.915773 27.085009 1.2537223 11
-13.912828 14.681259 1.3478968 13
-13.905181 14.710707 1.3859673 13
-13.93842 14.839393 1.3583621 13
-13.928173 15.393173 1.3223705 12
-13.901493 15.428728 1.3553958 13
-13.921528 15.864439 1.3898919 14
-13.986921 15.945511 1.3984828 14
-13.959888 16.197451 1.3485465 12
-13.918203 16.635689 1.3330129 15
-13.938778 16.754639 1.3133942 15
-13.913228 17.029551 1.3105476 15
-13.948174 17.12339 1.3148125 15
-13.912621 17.229046 1.3126022 15
-13.932157 17.552919 1.3210588 13
-13.937785 17.642107 1.315762 14
-13.938189 17.77994 1.3278854 14.5
-13.952852 17.852076 1.3467506 14.5
-13.924822 18.032513 1.3310468 14.333333
-13.971146 18.13452 1.3249954 15
-13.968037 18.411976 1.3418334 15
-13.937732 18.538221 1.3450609 15
-13.967422 18.674953 1.3445017 15
-13.940096 18.710064 1.3151723 14
-13.949073 18.882374 1.356953 15
-13.950203 25.468828 1.3724431 14
-13.96287 26.149807 1.3646951 11
-13.941949 26.244833 1.3349061 12
-13.95459 26.432798 1.3434837 11.5
-13.94319 12.783072 1.4373182 11
-13.912473 14.948496 1.4902893 11
-13.992323 15.110277 1.4364645 11
-13.966467 15.821646 1.4292279 14
-13.91271 16.489927 1.4790958 14
-13.943315 16.662157 1.4201692 14.333333
-13.927764 16.942671 1.408323 13
-13.929375 17.493921 1.4660172 15
-13.987971 17.551798 1.4447799 15
-13.980192 19.300554 1.4274642 15
-13.993118 19.483038 1.4169091 15
-13.915595 23.241314 1.4934244 10
-13.978209 25.130037 1.457862 14
-13.994756 25.342955 1.423955 14
-13.904789 25.467754 1.4646002 12
-13.986195 26.985611 1.41124 10
-13.902781 12.17452 1.5228102 5
-13.924822 12.266415 1.5539531 13
-13.905605 15.193956 1.5320992 12
-13.987082 15.367834 1.5411824 12
-13.922379 15.54014 1.5355117 12
-13.937001 17.411457 1.5742919 12
-13.979046 17.951797 1.5593377 15
-13.962542 18.116795 1.5210785 15
-13.926538 18.975508 1.5351415 15
-13.953011 19.081141 1.5142397 15
-13.919987 20.977577 1.5875783 11
-13.94888 21.389036 1.5343426 10
-13.918945 24.288645 1.5446955 14
-13.958646 10.278619 1.622185 10.5
-13.951509 11.016716 1.6122813 6
-13.923452 12.384771 1.6707819 13
-13.986679 17.077421 1.6049221 13
-13.90074 21.338898 1.6209154 11
-13.937918 11.801254 1.7098041 6
-13.908049 12.236874 1.7626446 6
-13.93648 12.374893 1.7650949 13
-13.948825 21.899199 1.7626265 13
-13.976249 10.435008 1.8382418 12
-13.917033 12.126904 1.8915858 8
-13.957479 12.351854 1.8940061 11
-13.973595 24.062582 1.8226682 13
-13.923028 24.155775 1.8489859 13
-13.947558 10.975089 1.9208394 7
-13.948764 11.773789 1.9558849 7
-13.910018 11.831969 1.9312438 7
-13.927679 12.147393 1.9521842 8
-13.969539 12.229204 1.9393803 8
-13.977489 12.325716 1.9445 8
-13.908784 10.231711 2.0650377 8
-13.947726 12.36593 2.0241752 14
-13.914612 10.273652 2.1266613 9
-13.986377 10.302748 2.1483769 12
-13.955153 11.794627 2.1092787 8
-13.909482 11.892301 2.1707187 8
-13.908994 12.007213 2.1553969 8
-13.947723 12.244293 2.1881526 10.666667
-13.968272 12.342942 2.1953669 12
-13.953561 69.425797 2.1157494 11
-13.986533 11.318075 2.299262 8
-13.951009 11.852692 2.2198083 8
-13.959052 12.154473 2.2255421 9
-13.980156 12.325641 2.2555747 11
-13.931476 11.862242 2.3988223 9
-13.913354 12.123837 2.3073614 9
-13.961108 12.356941 2.3173316 13
-13.970387 12.435881 2.310858 15
-13.923958 69.438766 2.3550053 8
-13.938329 10.22724 2.478147 9
-13.945167 10.567985 2.475997 9
-13.917298 11.706783 2.4998269 9
-13.974221 11.830131 2.4721909 9
-13.940409 11.953242 2.4993596 9
-13.907783 12.120522 2.4227073 10
-13.962872 12.228296 2.4291375 10
-13.941151 12.321864 2.4463258 11.666667
-13.96546 12.1428 2.5249765 10
-13.910516 12.326893 2.5188191 10.5
-13.915554 10.555347 2.6479125 14
-13.958044 12.1713 2.6490676 6
-13.943453 12.251726 2.6805699 11
-13.928164 12.312719 2.6586328 11
-13.949829 10.231737 2.712795 10
-13.956448 11.75859 2.7064965 10
-13.905571 12.128429 2.7235219 10
-13.948608 12.318406 2.7589931 10.5
-13.943994 11.684744 2.8971984 10
-13.953401 12.150398 2.8239517 11
-13.928962 10.322832 2.964757 13
-13.919443 12.109612 2.9011889 10
-13.961091 12.236979 2.9398446 12
-13.937006 12.322352 2.9028828 12
-13.916004 10.265673 3.0599566 12
-13.91997 12.279869 3.0389543 7
-13.925141 12.318427 3.0607619 10.666667
-13.918858 10.239448 3.1666226 13
-13.957283 10.355936 3.1774731 14
-13.901955 12.12518 3.141943 11
-13.931429 12.253455 3.1958189 12.5
-13.940046 12.319991 3.1225786 12.5
-13.951412 11.391936 3.2295763 11
-13.960968 12.274481 3.2146626 7
-13.953552 12.317159 3.2418807 10.333333
-13.967017 10.238508 3.3122714 12
-13.936687 10.344502 3.3623178 11.5
-13.900922 12.134008 3.3784587 14
-13.933541 10.207937 3.4163146 14
-13.974849 12.264232 3.4547048 13
-13.958827 12.309205 3.4131017 13
-13.945045 10.298645 3.5725489 14
-13.914714 12.230742 3.5464013 14
-13.936215 12.308316 3.5820215 14
-13.951119 10.269679 3.685194 14
-13.964747 12.089811 3.6613519 15
-13.969172 12.159097 3.6190124 12
-13.9547 12.322255 3.6352859 10
-13.9255 10.355098 3.7571537 13.333333
-13.939139 11.785539 3.7936342 14
-13.944434 12.239937 3.7247086 15
-13.927781 12.370753 3.7509041 8
-13.991967 12.401309 3.7442975 8
-13.930185 69.26619 3.7512465 10
-13.905717 11.629729 3.8132079 13
-13.958531 11.994293 3.8285382 12
-13.91949 12.247967 3.8586502 14
-13.940127 12.300847 3.8705499 15
-13.995949 10.251721 4.0153356 14
-13.916608 69.361778 4.0633407 9
-13.931015 10.330338 4.1310716 14
-13.923322 11.797739 4.112031 15
-13.935541 12.31222 4.1144862 13
-13.937006 10.224026 4.2308059 15
-13.941738 10.333307 4.2311263 13
-13.93059 12.227875 4.2019486 15
-13.972376 11.998444 4.3223605 13
-13.94804 10.418674 4.4063988 15
-13.995325 10.530648 4.4536095 15
-13.909422 10.289237 4.5587721 15
-13.989979 10.310381 4.5116334 15
-13.960571 12.118879 4.5628572 13
-13.937381 12.296325 4.5743165 14
-13.95064 10.298753 4.6772823 14
-13.935905 10.298917 4.7291431 15
-13.916993 10.342015 4.7841349 15
-13.913396 12.018987 4.7724552 10
-13.955113 69.22448 4.787827 11
-13.971219 12.03709 4.8144493 14
-13.92464 11.981975 5.0317273 10
-13.93375 12.291285 5.038929 15
-13.950549 69.246338 5.0994916 14
-13.963925 10.26885 5.1366463 15
-13.954197 12.062436 5.3246374 13
-13.920609 12.265567 5.3522601 13
-13.948432 69.28511 5.5524273 11
-13.922709 12.104272 5.6102257 11
-13.991663 69.212669 5.7415543 10
-13.920448 12.227883 6.1901507 12
-13.952514 12.190859 6.466506 13
-13.914077 12.224364 6.4485621 14
-13.971114 12.197435 6.8256636 13
-13.978668 12.216 7.0589023 14
-13.940653 69.323364 7.5100489 11
-13.911413 69.361717 9.0649118 11
-13.943092 69.210434 9.1594439 12
-13.958816 69.24086 9.3079453 12
-13.939985 69.05262 10.048404 15
-13.972215 69.065659 10.575097 13
-13.811722 12.472045 -0.16707736 8
-13.848303 12.526278 -0.16849129 8
-13.831087 12.452185 -0.0033182688 8
-13.869804 12.520956 -0.016754312 8.5
-13.867476 10.366119 0.15172595 8
-13.86718 12.363948 0.1952306 8
-13.817734 12.488953 0.16011651 9
-13.890399 12.518246 0.16282605 9
-13.836407 12.467704 0.29412588 9
-13.88397 7.2306895 0.32031029 8
-13.887691 7.7162929 0.35713464 8
-13.850971 12.276196 0.35288271 8
-13.896859 12.31314 0.36473659 8
-13.861438 12.435496 0.33794072 8.666667
-13.834608 12.444693 0.46745321 9.666667
-13.859486 12.351496 0.55286783 9
-13.871767 10.370003 0.67482257 9.666667
-13.832518 12.448985 0.64460671 10
-13.80177 12.503679 0.6452598 11
-13.875312 12.276977 0.73569947 9
-13.876245 12.371148 0.76694047 9.25
-13.840711 12.451497 0.74958622 10.333333
-13.807077 10.223698 0.86291134 10
-13.899514 10.761553 0.89617389 9
-13.830692 12.439352 0.85468954 10.9
-13.842275 12.431793 0.95479202 11
-13.801952 13.761409 0.99835443 12
-13.897631 30.629818 0.97480237 8
-13.836645 12.390402 1.085829 10.5
-13.868931 12.425381 1.0548649 10.833333
-13.898647 12.883191 1.0382755 11
-13.80613 13.397167 1.0303257 12
-13.820152 13.435144 1.0273844 12
-13.808665 13.773075 1.0929105 12
-13.823175 15.168221 1.0773693 13
-13.835483 16.006628 1.0288534 14
-13.816866 16.114222 1.0783643 14
-13.853873 16.792734 1.0721203 15
-13.841015 10.363477 1.1385952 10
-13.839134 11.916158 1.176047 10
-13.857363 12.416179 1.153826 11.333333
-13.895903 12.823926 1.1839262 12
-13.811039 13.282883 1.1684322 12
-13.877683 13.780052 1.1411382 12
-13.818429 13.845118 1.1315521 12
-13.818668 13.998392 1.1695614 12
-13.857429 14.150898 1.1195868 12
-13.825742 14.288057 1.1246605 12
-13.897384 14.634516 1.1934195 12
-13.86553 14.753989 1.196252 12
-13.860207 14.868647 1.1505418 12
-13.845892 14.936851 1.122732 12.666667
-13.842385 16.023033 1.1418599 14
-13.84984 16.161299 1.1398463 14
-13.873123 16.782719 1.1550776 15
-13.849967 16.837923 1.177066 15
-13.849087 16.957369 1.1836096 15
-13.876236 28.255335 1.1238619 10
-13.834227 12.13241 1.2455794 10
-13.866725 12.328222 1.2412405 10
-13.841758 13.029813 1.2184596 11
-13.876281 13.188569 1.239812 11
-13.889029 13.35469 1.2218659 11
-13.838949 14.414278 1.2158215 12
-13.835691 14.556072 1.2134708 11
-13.833593 14.858305 1.2343731 13
-13.870066 15.155479 1.2229787 13
-13.881351 15.252808 1.2250705 13
-13.8625 15.350869 1.2292281 13
-13.869637 15.439755 1.2085584 13
-13.816866 15.571619 1.2276368 13
-13.848415 15.7393 1.2473478 13
-13.867785 15.880424 1.212248 13
-13.850002 15.976791 1.22493 13
-13.858902 16.064817 1.2319373 13
-13.893496 16.102285 1.2301935 13
-13.865134 16.236694 1.2536011 13.666667
-13.877605 16.321203 1.2556736 13.5
-13.863637 16.437605 1.2480875 13.25
-13.859426 16.524578 1.240195 13
-13.865541 16.657793 1.2689124 14
-13.875003 16.756506 1.249063 13.5
-13.85667 17.127298 1.2905656 14
-13.849779 17.340429 1.2961951 14.5
-13.872194 17.619253 1.284448 15
-13.89843 27.20871 1.2527152 11
-13.812074 28.481827 1.2139803 9
-13.808865 10.240202 1.3230981 11
-13.883039 11.080923 1.3740097 5
-13.809982 13.058404 1.3313318 12
-13.871593 13.242039 1.3015685 12
-13.884743 14.607218 1.3446598 13
-13.800703 14.736587 1.3891937 13
-13.862097 15.123024 1.3378057 12
-13.803029 15.518515 1.3781067 13
-13.888165 15.61043 1.3570452 13
-13.851823 15.910819 1.3588594 12
-13.814959 16.3016 1.3410094 12
-13.891401 16.526438 1.3955175 14
-13.898771 17.089228 1.3264502 12
-13.836848 17.133659 1.3074776 15
-13.843541 17.260527 1.3392199 15
-13.817388 17.345631 1.3320901 15
-13.819024 17.83242 1.3133084 15
-13.845394 17.965649 1.3143812 15
-13.827669 18.082403 1.3176094 15
-13.858355 19.291981 1.3483502 15
-13.842093 25.499308 1.3534814 15
-13.863841 25.868402 1.3140943 14
-13.861202 10.417033 1.4937714 10
-13.846629 12.600707 1.4429743 11
-13.889503 13.18476 1.4302419 11
-13.814907 13.521068 1.4441308 11
-13.883404 13.798681 1.4413964 11
-13.80617 14.545254 1.4237113 11
-13.882989 16.466805 1.4163578 14
-13.884684 16.714977 1.4500442 15
-13.86369 17.271608 1.4838035 14
-13.845719 24.821791 1.4134263 15
-13.876118 25.077734 1.4239378 14
-13.824485 25.488447 1.411495 13
-13.89418 27.015579 1.4953997 9
-13.845741 10.499128 1.5748663 11
-13.828306 12.379526 1.5765001 13
-13.869059 15.248966 1.5315096 12
-13.864904 24.255327 1.5108469 15
-13.856573 10.254006 1.6339006 6.5
-13.849406 10.31288 1.6788138 7
-13.826193 10.975942 1.6366225 8
-13.847112 12.38298 1.6546803 13
-13.869583 21.552969 1.6675937 12
-13.812485 10.259789 1.7876474 12
-13.814942 10.373764 1.7384751 7
-13.80276 10.40337 1.7266747 12
-13.885277 10.548861 1.7533067 12
-13.89572 11.284954 1.7318375 6
-13.86815 11.754196 1.7194072 7
-13.892414 11.845519 1.7521801 7
-13.845742 11.927021 1.7739735 10
-13.883759 12.052038 1.755433 7
-13.872901 12.375817 1.7697093 13
-13.891397 69.409027 1.754886 11
-13.844623 10.257902 1.8645911 7
-13.880206 10.342534 1.8816941 8
-13.815855 10.493648 1.8948537 8
-13.832072 10.517105 1.8853499 7
-13.830449 10.742639 1.869753 8.5
-13.828839 11.255732 1.8898121 8
-13.818521 12.404051 1.8957666 14
-13.830176 10.336336 1.9468431 8
-13.833919 10.433368 1.9180274 8
-13.811437 12.090209 1.9044393 10
-13.853518 12.369285 1.9636924 14
-13.860244 10.42823 2.0164783 11
-13.888852 11.383447 2.01912 7
-13.879837 11.436942 2.0053616 7
-13.853097 12.35868 2.0350013 14
-13.838891 10.223795 2.1264806 8
-13.899821 12.122685 2.1988966 9
-13.859714 12.355255 2.1405096 14
-13.824088 10.268011 2.2330854 11
-13.838381 10.330558 2.2286012 9.5
-13.836254 10.423609 2.2558873 10.333333
-13.889737 10.561122 2.2006149 13
-13.8731 10.654597 2.2591653 9
-13.839252 10.749442 2.25736 9
-13.852878 11.081996 2.2553113 8
-13.847115 12.179663 2.2241201 8
-13.89176 12.240283 2.2575991 12
-13.872945 12.360334 2.2726793 15
-13.871066 10.317897 2.3750966 10.5
-13.864945 12.334249 2.3579779 15
-13.863572 69.381943 2.3046896 8
-13.828272 10.333864 2.4550912 9.666667
-13.801712 12.14549 2.4415281 9
-13.844552 12.332221 2.43537 15
-13.881708 10.256504 2.5411043 10
-13.821988 10.326716 2.5004699 10
-13.826532 10.414847 2.5442073 11
-13.866573 11.218788 2.5798645 9
-13.857691 11.658361 2.5356081 11
-13.833012 10.280308 2.6465614 10
-13.80201 10.377693 2.6916654 11
-13.859125 10.431054 2.603111 10
-13.813833 10.509283 2.6306012 10
-13.826183 11.244471 2.6461971 10
-13.806293 12.2021 2.6769755 10
-13.828408 10.314348 2.7638052 12
-13.832692 10.321606 2.8585095 11.5
-13.833009 10.416656 2.8459227 12.5
-13.8506 11.966719 2.8717549 6
-13.887442 12.30656 2.8670301 12
-13.853912 10.271813 2.9550056 11
-13.812993 10.372097 2.9351442 12
-13.864092 10.418701 2.9487998 11
-13.88163 12.235031 2.9509053 11
-13.823395 10.319973 3.0922313 12
-13.83925 10.453729 3.0337107 12
-13.849697 10.333832 3.1712191 13
-13.80468 10.412248 3.1867754 12
-13.830626 10.244702 3.280242 12
-13.826954 10.325482 3.2201948 15
-13.835017 10.428885 3.2748473 12.5
-13.81305 10.650674 3.265393 12
-13.850657 10.282953 3.3023019 15
-13.83641 10.306976 3.3533797 13
-13.828194 10.472929 3.3789747 12
-13.870822 10.622591 3.3606093 15
-13.853967 11.452754 3.3857372 13
-13.837601 12.043629 3.3808827 7
-13.890438 12.236826 3.3175275 12.333333
-13.839977 10.30447 3.4661727 13
-13.847487 10.26127 3.5878091 13.5
-13.809572 10.418945 3.5140095 13.5
-13.838843 10.548347 3.5257065 13
-13.839344 11.46573 3.5810201 15
-13.834206 11.978536 3.5466254 9
-13.899232 12.120189 3.5636628 12
-13.898553 69.307686 3.5447557 8
-13.877646 10.266939 3.6667099 13
-13.846235 10.429324 3.6293941 13.5
-13.850892 10.966108 3.6900632 13
-13.851863 11.932343 3.6108341 12
-13.892346 12.035793 3.6261764 15
-13.841617 10.280409 3.7453775 14
-13.836497 10.301112 3.7005496 14
-13.899905 10.412623 3.7757642 14
-13.84833 11.473626 3.7667081 13
-13.870179 10.256307 3.8903983 14.5
-13.807309 10.400332 3.8399775 14
-13.803983 10.531873 3.8160496 14
-13.83995 12.081077 3.894429 8
-13.847948 10.423544 3.9993174 14
-13.836676 11.865402 3.9754863 13
-13.893052 12.121582 3.9883802 13
-13.851324 10.278915 4.0574546 14.5
-13.827183 10.307899 4.0067387 15
-13.872839 11.088585 4.1371727 14
-13.819399 10.253029 4.274138 14
-13.809943 10.938392 4.240027 14
-13.848837 10.416462 4.3609862 15
-13.825699 10.569372 4.3988719 15
-13.823586 12.166553 4.4015484 9
-13.831102 11.196406 4.5967302 15
-13.813317 10.286792 4.6868033 15
-13.838437 11.085442 4.8006563 15
-13.89687 12.093582 4.8619833 15
-13.823755 12.209951 4.918622 10
-13.852314 12.265122 5.1049562 15
-13.834257 12.227536 5.4475789 11
-13.867704 12.187763 6.0027442 12
-13.814208 69.256248 6.1129251 14
-13.867631 69.243614 6.7569003 12
-13.866579 69.226677 7.010715 11
-13.827816 69.299568 7.5743775 11
-13.871901 69.178413 7.8429303 13
-13.874552 69.158943 8.9031019 14
-13.85768 69.198975 9.3546267 12
-13.868587 69.155342 9.7379522 15
-13.740714 12.539034 -0.31905252 8
-13.775199 -13.206832 -0.27832678 8
-13.742985 12.463132 -0.25903749 8
-13.733169 12.488426 -0.1494218 8
-13.770565 12.539154 -0.17209537 8
-13.745467 12.349374 -0.012584659 8
-13.75135 12.483817 -0.0029051001 8
-13.721172 12.61762 -0.0037381679 8
-13.780443 12.389836 0.0080957683 8
-13.760373 12.45815 0.033340733 8.5
-13.766034 10.462973 0.10504096 8
-13.775488 12.276849 0.12441123 8
-13.70726 12.371819 0.16943684 8
-13.741184 12.472397 0.15735739 8.5
-13.788847 12.522627 0.13571817 8.5
-13.765921 12.448442 0.27395454 9
-13.750147 7.3986621 0.30132884 8
-13.790644 7.9278312 0.33647835 8
-13.739493 12.299273 0.3221682 9
-13.788172 12.347422 0.34647325 8.5
-13.756579 12.448419 0.33315179 9.1999998
-13.781266 12.514102 0.32264361 10
-13.767343 12.249094 0.45973676 9
-13.708029 12.39919 0.469174 10
-13.748715 12.463908 0.4716652 9.75
-13.789466 12.500318 0.4615041 9.5
-13.704917 12.347519 0.52876282 9
-13.793655 10.461436 0.68210107 9
-13.766949 12.376901 0.66245282 10.333333
-13.757523 12.453564 0.65117252 10
-13.744296 12.501035 0.66605902 10
-13.758726 12.350503 0.73533916 10
-13.780805 12.422211 0.74564487 11
-13.738271 31.219816 0.7842924 8
-13.711547 10.211576 0.80038458 9
-13.766471 12.426993 0.86024636 11
-13.754058 13.462379 0.88359439 12
-13.748381 12.350472 0.94724363 11
-13.7623 12.441079 0.94781387 11
-13.717914 13.679782 0.97722828 12
-13.777896 14.966937 0.97011364 13
-13.765913 29.758482 0.96269429 9
-13.765966 12.479207 1.0132278 11
-13.727563 12.518298 1.0491997 11
-13.747361 12.621407 1.0409536 11
-13.734866 13.365445 1.0761931 12
-13.724149 13.454996 1.01553 12
-13.712636 13.62183 1.0164585 12
-13.762364 14.098534 1.0077341 11
-13.758896 14.475502 1.0706925 12
-13.739677 15.069164 1.0891482 13
-13.764623 15.103533 1.0517644 13
-13.753343 28.540762 1.0798366 10
-13.776214 29.101145 1.0882399 9
-13.777849 10.383831 1.1860975 11
-13.766113 10.489923 1.1078053 10
-13.765477 12.48493 1.1169666 11
-13.73187 13.109087 1.1887226 12
-13.779669 13.380787 1.1349182 12
-13.730203 13.468566 1.1566755 12
-13.763814 13.66026 1.1291306 12
-13.757905 13.729717 1.1565626 12
-13.746137 13.800563 1.1464418 12
-13.762836 13.985846 1.1568375 12
-13.751041 14.089283 1.1192211 12
-13.743248 14.441854 1.153864 12
-13.788 14.540695 1.1376575 12
-13.757066 14.667007 1.1723471 12
-13.703147 15.044442 1.1620883 12
-13.764563 15.489285 1.1817324 13
-13.730789 15.966002 1.167475 14
-13.742037 16.144529 1.1488787 14
-13.743774 16.254269 1.1498696 14
-13.755518 16.908262 1.1993316 13
-13.741421 19.429611 1.193323 9
-13.705772 27.64572 1.1697512 11
-13.745239 28.171926 1.1680075 10
-13.71418 11.657146 1.2209699 10
-13.739009 12.889684 1.2811745 12
-13.782303 12.978019 1.2853279 12
-13.717896 14.058318 1.2862631 12
-13.780576 14.711172 1.2548192 13
-13.726607 15.129439 1.2391305 13
-13.751022 15.248543 1.2258589 13
-13.795317 15.324689 1.2244846 13
-13.751316 15.573076 1.2431736 13
-13.703327 15.782719 1.2391198 13
-13.791998 16.243517 1.2460582 13
-13.762184 16.347147 1.2488358 14
-13.74936 16.443789 1.2724853 14
-13.727066 16.535933 1.2895784 14
-13.75659 16.767948 1.2250215 14
-13.738894 16.893457 1.2607224 14
-13.757141 17.02239 1.2701224 14
-13.725876 17.120264 1.294377 14
-13.771816 17.498774 1.292527 14
-13.752586 26.957653 1.2827622 11
-13.747562 10.271667 1.3951679 8
-13.743595 10.415237 1.3536887 10
-13.74893 13.693666 1.3912556 12
-13.719531 13.971579 1.3106306 12
-13.734938 14.588193 1.3449712 13
-13.792904 15.317835 1.3702878 13
-13.729198 15.817146 1.3887227 14
-13.748415 16.384726 1.3108084 14
-13.744589 17.961998 1.3011141 14
-13.741581 18.043993 1.3384497 15
-13.758989 25.872667 1.3350326 14
-13.785822 25.965096 1.3827786 12
-13.779929 26.350676 1.3578821 12
-13.769466 12.32766 1.4845198 12
-13.729254 12.59184 1.4255948 11
-13.797285 12.889407 1.4271941 11
-13.750727 13.621488 1.4683716 11
-13.713215 21.302212 1.4844018 10
-13.713978 24.977919 1.4902591 14
-13.750781 25.12842 1.4724907 13
-13.737958 25.246748 1.44877 13
-13.772025 10.29001 1.5089612 7
-13.777964 10.503975 1.546033 11
-13.705313 11.222527 1.5936018 11
-13.785563 12.387529 1.5778563 13
-13.756284 12.420114 1.5994124 13
-13.785711 24.404232 1.5421627 14
-13.723633 24.924414 1.5097792 13
-13.748818 26.032837 1.5750315 12
-13.712307 10.329536 1.6952039 10
-13.766552 10.439855 1.6711069 10
-13.785501 12.403297 1.6226563 13
-13.717518 21.448215 1.6856991 12
-13.73774 24.956358 1.6398476 12
-13.765049 10.217262 1.7606679 9
-13.764019 10.373409 1.7185785 9.25
-13.719606 10.413505 1.7085893 10
-13.759252 10.359014 1.8423038 8
-13.744472 12.292321 1.851469 13
-13.722566 24.138058 1.8440157 14
-13.720441 24.249195 1.8697915 15
-13.7491 10.296435 1.9575431 12
-13.779805 10.342486 1.9821889 8
-13.771866 10.405491 1.947632 11
-13.779538 10.502604 1.9862926 12
-13.787934 12.370325 1.9360087 14
-13.762472 12.411665 1.9565303 14
-13.747954 10.35615 2.1679509 10
-13.796895 10.514111 2.1766229 12
-13.725696 10.808316 2.1730773 13
-13.764929 10.915712 2.1647134 11
-13.76614 10.354263 2.2637441 10.333333
-13.750195 10.42511 2.275106 11
-13.789096 10.700313 2.279 9
-13.74176 12.34302 2.2862771 15
-13.744617 10.389817 2.3695314 11
-13.711915 10.425525 2.3480873 12.5
-13.790199 12.36144 2.3266983 15
-13.758503 69.360252 2.3604136 7
-13.789912 10.332665 2.4887128 10
-13.772555 10.461486 2.4355223 12
-13.787971 69.34819 2.4245257 12
-13.797596 10.349467 2.5453887 12.5
-13.789192 10.492997 2.6940892 12
-13.762396 10.787372 2.6589012 11
-13.716504 12.248375 2.6003215 15
-13.796736 10.32659 2.7448015 11
-13.755899 10.535651 2.7825124 13
-13.740326 10.796994 2.7808299 14
-13.785205 11.296641 2.7730985 12
-13.749283 10.368959 2.8615341 12
-13.760147 10.44734 2.8646767 12.5
-13.780629 12.167814 2.8964581 11
-13.775343 10.234224 2.9146287 12
-13.770879 10.392934 2.9656034 12
-13.740011 10.44271 2.9522223 12.6
-13.793152 10.67709 3.0717349 11
-13.798914 10.378081 3.1769006 13
-13.763442 12.223448 3.1319954 12
-13.737297 10.2911 3.2258921 12
-13.794087 10.509253 3.2496209 13
-13.723573 11.830354 3.2974639 13
-13.747801 10.359887 3.3458152 13
-13.761909 10.45215 3.3808324 13
-13.79495 11.318672 3.3579195 13
-13.765666 10.371121 3.452642 13.25
-13.740517 10.424946 3.4604089 13.333333
-13.748902 10.521803 3.4775269 14
-13.791776 10.671268 3.4721482 12
-13.780286 10.81194 3.4013634 15
-13.705067 69.406349 3.406507 8
-13.75502 10.381075 3.585449 13
-13.718768 10.485118 3.5225263 13
-13.779508 10.572975 3.5865309 13
-13.713609 10.72678 3.5177364 14
-13.739396 69.417786 3.5876625 9
-13.793513 10.379508 3.6739576 15
-13.765343 10.421995 3.6114738 13
-13.791089 12.085647 3.6717753 8
-13.731753 10.260003 3.7178862 14
-13.72553 10.309443 3.7115083 14
-13.795564 10.443203 3.7778082 15
-13.737947 10.361784 3.9741502 15
-13.751384 10.447856 3.9621534 14
-13.790464 11.324318 3.9473755 14
-13.765793 69.371628 3.997195 13
-13.754005 10.378753 4.0524282 14
-13.774267 10.431958 4.0903444 14
-13.760621 10.5722 4.0414858 15
-13.787962 12.183519 4.0008497 15
-13.715528 69.370354 4.0306325 9
-13.716204 10.399456 4.1792397 15
-13.784702 10.437366 4.1375999 14.5
-13.775011 10.396149 4.2227349 14
-13.760396 10.417416 4.2288308 14
-13.794827 11.545981 4.2564321 14
-13.729189 10.619 4.3075814 15
-13.771338 10.964602 4.4727111 15
-13.749485 10.381179 4.6638913 15
-13.781905 10.441611 4.7087507 15
-13.772492 10.248335 4.8923044 15
-13.769944 10.392398 4.8637462 15
-13.771664 10.425669 4.8616748 15
-13.778324 69.365318 4.8246169 13
-13.764947 69.331306 4.9893656 14
-13.72113 69.299675 5.0826349 9
-13.746321 69.311531 5.4759288 12.5
-13.734622 69.228607 6.7682867 10
-13.760848 11.961262 7.1930995 14
-13.750339 69.127701 8.4600744 11
-13.765879 69.030174 10.166143 12
-13.789748 69.075226 10.733761 13
-13.780955 68.940262 11.892449 13
-13.672729 12.359197 -0.16107413 8
-13.631851 12.53436 -0.15169595 8
-13.642967 12.472489 -0.0075881006 8
-13.670251 12.385883 0.00053051068 8
-13.654347 12.486798 0.006575963 8
-13.60622 10.345606 0.14277236 8
-13.686296 12.305891 0.16627911 9
-13.677053 12.449963 0.1538507 9
-13.636036 12.52621 0.17517374 9
-13.67641 12.361061 0.34824601 9
-13.650216 12.458622 0.33678767 9
-13.665441 12.474582 0.48712769 10
-13.625006 12.543089 0.50704861 10
-13.604886 32.974365 0.5834716 8
-13.671312 12.332715 0.69859862 10
-13.667447 12.459126 0.67075586 10
-13.690478 47.518105 0.61906952 10
-13.676627 12.364922 0.70486856 10
-13.667158 12.449985 0.7186482 10
-13.649468 31.488726 0.79375154 8
-13.612292 10.189094 0.84100056 9
-13.692224 10.704562 0.86022919 9
-13.674756 12.473546 0.8115291 11
-13.635523 12.519765 0.83278471 11
-13.669837 8.9500313 0.983877 10
-13.659438 10.791305 0.96809185 11
-13.633675 11.365555 0.92782634 10
-13.638384 12.364125 0.97850794 11
-13.670648 12.446225 0.97384733 11
-13.667001 13.573078 0.99128163 12
-13.676658 12.591118 1.0227764 11
-13.662546 13.488812 1.0302128 12
-13.689282 13.7156 1.0082848 12
-13.693155 13.847951 1.0831276 12
-13.673224 15.22283 1.0992566 13
-13.679865 28.52356 1.0826005 10
-13.63555 10.359236 1.1948112 10
-13.645374 10.774555 1.1329591 10
-13.674534 12.227823 1.1947513 10
-13.696792 12.451741 1.1466954 11
-13.628397 13.355341 1.1279558 12
-13.618979 13.594739 1.1739118 12
-13.610182 13.697593 1.1609457 12
-13.694292 14.087373 1.1814996 12
-13.658962 14.894848 1.11728 13
-13.659698 14.97446 1.107356 13
-13.682686 15.537405 1.1739186 13
-13.686003 16.167381 1.1516731 14
-13.616786 27.61717 1.1728743 11
-13.647182 10.41297 1.2064657 11
-13.615574 10.565952 1.2765269 10
-13.620525 12.490813 1.234629 11
-13.697181 13.058886 1.2214763 11
-13.603189 17.006525 1.2926197 14
-13.657271 17.135569 1.2721545 14
-13.661803 17.387098 1.2925476 14
-13.638545 26.383482 1.2923564 13
-13.667892 26.935965 1.2363206 12
-13.699769 10.28594 1.3775353 11
-13.67267 12.592536 1.3684206 12
-13.648923 13.670878 1.3079531 12
-13.659874 16.398245 1.3053463 14
-13.648716 25.912935 1.3637345 13.5
-13.642013 26.02702 1.3943111 13
-13.624169 26.381165 1.3374125 12
-13.616055 26.930929 1.3199095 11
-13.672092 27.308887 1.3762618 10
-13.69124 13.747884 1.438272 11
-13.645592 25.321989 1.4554021 12
-13.663099 26.855923 1.4093146 10
-13.693071 10.800454 1.5681033 12
-13.661427 21.280375 1.5165989 10
-13.65876 24.341164 1.544646 14
-13.658981 24.506828 1.5265172 14
-13.67379 25.476421 1.5986059 12
-13.643064 10.410698 1.6842612 11
-13.624207 21.09997 1.6238253 11
-13.633905 21.331974 1.6178415 11
-13.694128 21.939878 1.6668018 11.5
-13.627746 24.044489 1.6396263 15
-13.637812 10.363989 1.7426625 11
-13.681441 10.445219 1.7111698 10
-13.661705 10.761805 1.7219656 11
-13.6609 12.586707 1.7187134 13
-13.646381 10.570426 1.8605951 11
-13.638403 12.570907 2.076463 14
-13.659093 10.386586 2.2492456 12
-13.649003 10.380483 2.3416219 12
-13.686147 10.452192 2.3067682 11
-13.684207 10.759927 2.3162301 12
-13.680328 10.362612 2.8003671 13
-13.686064 10.404037 2.825999 13
-13.610729 10.357692 2.9393589 12
-13.694706 10.736023 2.9123912 13
-13.695609 10.36235 3.3481369 14
-13.695447 10.541884 3.3888071 14
-13.601821 10.35004 3.5511177 13
-13.623809 10.704432 3.5620339 15
-13.602302 10.970531 3.574311 14
-13.697257 10.634074 3.6498849 15
-13.648136 10.559234 4.0035563 15
-13.692795 69.273483 4.7944345 14
-13.600257 10.347011 4.8046203 15
-13.69693 69.351685 5.4811783 5
-13.624146 69.269844 5.5700769 14
-13.657613 69.33963 5.7830644 10
-13.631836 69.359146 7.2742081 10
-13.615393 69.303802 7.3597779 10
-13.636829 69.324165 9.1346569 11
-13.546057 12.535133 -0.14788085 8
-13.555885 12.523437 0.17385212 9
-13.506263 7.3760171 0.28835592 8
-13.58927 7.8828025 0.33358192 8
-13.507426 12.335278 0.33156556 9
-13.599218 10.226071 0.49925375 8
-13.576198 12.493075 0.49733165 10
-13.555655 12.513765 0.49623078 10
-13.575503 10.346742 0.63752943 10
-13.594225 12.553183 0.66789198 10
-13.572995 31.332205 0.79450941 8
-13.517295 10.320516 0.89282984 9
-13.586545 10.800963 0.89029473 9
-13.537605 11.120145 0.85211009 10
-13.586269 12.468849 0.82244259 11
-13.565459 12.504413 0.82103097 11
-13.599456 10.217082 0.96648645 9
-13.561837 29.789583 0.96600598 9
-13.556361 30.587175 0.96114522 8
-13.535342 30.647955 0.92922193 8
-13.596577 12.539562 1.0080248 11
-13.576571 12.673292 1.0552353 11
-13.553875 13.336576 1.0469344 12
-13.571885 13.568793 1.0267029 12
-13.503763 13.676571 1.0221287 12
-13.567552 13.77461 1.02483 12
-13.529062 10.719624 1.192068 11
-13.55152 14.060066 1.1799828 12
-13.512671 14.969217 1.1000808 13
-13.543036 15.19185 1.1736376 13
-13.554014 15.875149 1.1981754 13
-13.590445 16.989433 1.194343 15
-13.586456 28.853556 1.1950989 9
-13.583365 28.960157 1.1967276 9
-13.580151 15.724115 1.2109048 13
-13.565744 15.846854 1.2066395 13
-13.586963 16.517056 1.2781829 14
-13.528665 26.351505 1.2977595 13
-13.568637 26.924002 1.2445292 12
-13.506344 26.839705 1.3052044 11
-13.578603 22.055471 1.4215174 9
-13.521341 24.678791 1.4831926 15
-13.53217 21.620173 1.524079 10
-13.565149 25.774494 1.5333469 12
-13.559397 21.946877 1.6861079 12
-13.573275 24.287365 1.6371516 15
-13.545811 10.661921 1.7183921 11
-13.548569 10.707738 1.7755747 12
-13.565327 21.734755 1.7212995 13
-13.571621 24.31846 1.7107112 14
-13.57891 10.681114 2.3380303 12.5
-13.577809 69.399208 2.3405023 12
-13.506197 10.589242 2.4172392 13
-13.513134 69.425095 2.5622306 8
-13.595896 10.700242 2.9584 14
-13.572266 10.982136 2.9601147 13
-13.526946 10.574793 3.0046601 14
-13.567965 69.468193 3.1921048 13
-13.536321 69.434898 3.4894257 9
-13.546008 10.555303 3.5976663 15
-13.579057 69.353317 3.7691736 13
-13.599239 10.347169 4.1723151 14
-13.502419 69.011818 11.946444 13
-13.463617 6.622704 0.22257297 8
-13.406952 6.7580676 0.22965761 8
-13.437183 6.8734207 0.24042416 8
-13.430957 31.476042 0.8070491 8
-13.464087 29.639582 0.96392328 9
-13.498604 28.566784 1.0849936 10
-13.473143 11.002431 1.1543248 10
-13.417395 13.112068 1.1494738 12
-13.460671 16.922319 1.1949997 15
-13.451867 27.662428 1.1738824 11
-13.448573 28.168928 1.1442921 10
-13.426335 28.605486 1.1913501 9
-13.474313 10.641342 1.2580712 11
-13.440116 15.300308 1.2133592 13
-13.492351 15.658033 1.2296834 13
-13.415544 26.960033 1.2422152 12
-13.495338 29.532866 1.2138969 9
-13.469757 25.505768 1.3805379 15
-13.478394 25.859343 1.3366423 14
-13.419135 26.009544 1.362734 13
-13.483027 26.377611 1.326283 12
-13.466471 13.942944 1.4155625 11
-13.495411 17.118624 1.4390434 15
-13.465477 21.252274 1.4677662 10
-13.411859 24.837847 1.4588443 15
-13.450123 24.979673 1.47754 14
-13.492844 25.058611 1.411883 15
-13.455784 26.639027 1.5269942 11
-13.470409 21.531298 1.6231797 12
-13.429524 21.9065 1.6217016 11
-13.416273 25.137455 1.6201872 12
-13.495559 10.629086 1.8377497 12
-13.416585 10.750697 1.801482 11
-13.429446 69.430008 2.3423963 8
-13.462218 69.395226 3.4185686 8
-13.43798 69.412422 3.4132168 8
-13.486679 69.416672 4.4218059 10
-13.427143 69.335037 5.0818253 9
-13.471396 69.31414 5.1027441 9
-13.441519 69.341408 5.650034 10
-13.432907 69.34597 5.8503528 10
-13.467263 69.234138 6.7825174 10
-13.400784 69.372696 7.2358365 10
-13.459779 69.277992 7.5566206 13
-13.478314 69.142578 8.4787712 11
-13.449272 69.225662 8.6246443 14
-13.40894 69.378372 9.1966228 11
-13.485549 69.045456 10.181613 12
-13.495645 69.082901 10.209334 12
-13.49638 68.958717 11.893379 13
-13.499085 68.956879 11.929112 13
-13.397787 -8.6183205 -0.30439439 10
-13.367698 -5.7767944 0.086831748 10
-13.382452 6.8922324 0.22342367 8
-13.332088 7.0079584 0.27131072 8
-13.389216 7.7665143 0.3497695 8
-13.376708 6.7195873 0.43992397 9
-13.363228 31.323448 0.79160827 8
-13.30565 29.755957 0.9891277 9
-13.38635 28.432953 1.0817858 10
-13.33112 13.779387 1.1495543 12
-13.328368 15.111441 1.1071916 13
-13.330616 27.563934 1.1739496 11
-13.354193 28.02162 1.1785396 10
-13.390818 30.71546 1.1218383 8
-13.346645 13.706535 1.2800919 12
-13.361697 27.111988 1.2933373 11
-13.395618 27.291018 1.2372013 11
-13.386018 25.840723 1.3832713 14
-13.363749 25.95487 1.3454369 14
-13.357907 26.361532 1.3085313 12
-13.38739 26.412634 1.2999927 13
-13.342707 26.925756 1.3093034 11
-13.397825 27.479286 1.3607057 10
-13.342649 24.938402 1.4815147 14
-13.395424 25.057901 1.4198844 15
-13.339219 25.437735 1.4695764 14
-13.339651 25.530981 1.4281713 14
-13.360117 24.264475 1.6408683 14.666667
-13.377441 24.344597 1.6018203 15
-13.343487 25.164696 1.6378387 13
-13.378798 25.56447 1.6397511 12
-13.388071 24.221331 1.714626 14
-13.378213 24.199459 1.8569958 15
-13.331235 69.461426 2.0111253 11
-13.36169 69.468513 2.4223409 8
-13.339381 69.43187 3.1132369 8
-13.326557 69.40567 3.9173346 9
-13.301987 69.379532 4.4325981 10
-13.388914 69.343201 4.5227594 10
-13.307484 69.375389 4.7925143 9
-13.323495 69.343483 5.1056676 10
-13.369667 69.258652 9.1371059 12
-13.313677 69.064514 10.192054 12
-13.326944 68.977264 11.922945 13
-13.30868 69.008034 11.917531 13
-13.207871 2.5483522 -0.054647226 8
-13.250546 3.3613305 -0.01957432 8
-13.25135 5.2204962 0.34853762 9
-13.23647 8.1756039 0.37633121 8
-13.298711 9.635272 0.64035374 10
-13.237912 44.330757 0.6587829 10
-13.243525 31.33061 0.79739821 8
-13.279749 29.666586 0.9610303 9
-13.28637 30.827284 0.92086524 8
-13.219173 28.46822 1.0779421 10
-13.20463 29.444563 1.0546553 9
-13.263927 28.000526 1.1753048 10
-13.22753 28.174557 1.1656895 10
-13.216901 28.537743 1.1168557 10
-13.208836 12.245039 1.2170057 10
-13.287136 26.882845 1.2649801 11.5
-13.260406 26.946831 1.277205 11
-13.227131 27.912464 1.2351925 10
-13.296054 10.204361 1.3643281 10
-13.237848 26.01265 1.3720189 12
-13.252231 26.341669 1.3036448 13
-13.20039 21.472599 1.4435222 10
-13.297804 24.34231 1.47093 15
-13.288036 25.684263 1.4671067 12
-13.239719 26.194798 1.451775 11
-13.290928 24.667759 1.5534109 13
-13.244944 24.995539 1.5274245 14
-13.21125 25.076872 1.5129479 13
-13.215805 69.417542 1.5998641 11
-13.20462 24.070217 1.6285614 15
-13.267818 24.165468 1.6439763 14.5
-13.285172 24.201391 1.6942313 14
-13.287652 21.95652 1.7131791 13
-13.234487 24.198019 1.8311254 15
-13.242361 69.485252 2.3415065 12
-13.213127 69.364388 3.1013985 12
-13.239882 69.417992 3.4156508 8
-13.219237 10.17151 3.5474496 14
-13.264989 69.250031 3.6641874 9
-13.238662 69.419556 3.6627941 13
-13.274175 69.394081 4.1429276 9
-13.254563 69.343025 5.096571 9
-13.287404 69.33876 5.6394382 10
-13.223181 69.404915 5.687541 5
-13.24842 69.387611 5.7340255 10
-13.28177 69.328148 5.8355198 10
-13.277109 69.293892 6.4759059 10
-13.282134 69.340477 6.6898255 14
-13.270546 69.252052 6.7821817 10
-13.246383 69.214531 8.1694841 11
-13.22276 69.270081 8.2356691 15
-13.286715 69.158127 8.4772997 11
-13.291061 69.446808 8.8981075 11
-13.280328 69.079956 9.1592579 12
-13.214252 69.151192 9.8806419 12
-13.290094 69.096115 10.188016 12
-13.237353 69.166916 11.089071 13
-13.130875 5.8952708 0.048831373 9
-13.11581 28.617735 0.13720591 8
-13.107128 6.8741689 0.28990838 8
-13.117084 40.983078 0.38692567 9
-13.190725 31.340403 0.79958898 8
-13.103822 30.571281 0.89277673 8
-13.128368 12.41128 0.97284859 11
-13.111199 29.661127 0.97913837 9
-13.172193 30.296953 0.904145 8
-13.110435 11.714767 1.1683176 10
-13.176018 27.608673 1.1701236 11
-13.114072 26.379232 1.2957726 13
-13.119143 26.608912 1.2842413 12
-13.141719 26.927645 1.2401624 12
-13.150143 27.621458 1.2101318 11
-13.196083 27.757778 1.2253402 10
-13.197119 25.488941 1.3819958 15
-13.194248 26.159502 1.3699689 12
-13.107904 21.471056 1.4384124 10
-13.130899 24.958445 1.4616877 15
-13.164414 25.478956 1.4560646 14
-13.113716 26.369452 1.463255 11
-13.110896 24.672161 1.5175873 14
-13.106318 10.191146 1.9185565 11
-13.14157 10.189627 2.4568939 12
-13.17944 10.182466 2.9994388 13
-13.134778 69.365242 5.4520712 9
-13.18922 69.475418 5.5773134 10
-13.178669 69.290504 6.9404402 15
-13.146407 69.367531 7.3644171 10
-13.17359 69.181282 7.5069399 11
-13.132398 69.34491 7.5027828 11
-13.193348 69.243362 9.2997036 12
-13.173208 69.028839 9.9710302 15
-13.115653 69.196503 11.057405 13
-13.18342 69.063072 11.605916 13
-13.055299 2.818706 -0.28770003 8
-13.047362 7.0396452 -0.093592517 8
-13.027646 7.2158375 -0.092054047 8
-13.00449 10.18917 0.3225868 8
-13.099685 29.684031 0.97894275 9
-13.058414 27.549864 1.1813509 10
-13.004521 27.648333 1.1975751 10
-13.068989 27.998209 1.1812716 10
-13.015773 28.457396 1.1053363 10
-13.035213 28.511005 1.1061642 10
-13.08354 28.891506 1.1694176 9
-13.099544 26.926867 1.2847472 12
-13.017243 27.188591 1.2827274 11
-13.052363 12.337364 1.3811835 11
-13.07187 25.544369 1.3771868 15
-13.024086 25.891266 1.3871309 14
-13.091169 25.925802 1.3405015 14
-13.057952 26.356056 1.3409876 13
-13.084669 23.171711 1.4794686 10
-13.027529 25.318178 1.4749752 13
-13.040555 25.447504 1.4405036 13
-13.097829 25.566795 1.4058845 12
-13.086377 21.898382 1.5911866 11
-13.071046 24.437464 1.5807397 14
-13.051581 24.517015 1.5002918 13
-13.083006 25.328899 1.573669 13
-13.042067 21.752073 1.6081243 11
-13.0742 21.924435 1.6287977 11.5
-13.028124 24.243559 1.6643392 15
-13.04517 24.231108 1.7231878 13
-13.049703 24.24794 1.852948 14
-13.042705 69.466461 2.2981541 8
-13.054582 69.44986 2.3411603 8
-13.051685 69.348244 2.7367432 9
-13.071914 69.417213 3.2904999 12
-13.088435 69.372887 3.3098209 9
-13.077207 69.413689 3.5918219 9
-13.046591 69.381569 4.7925663 9
-13.050339 69.388512 5.4437151 11
-13.055398 69.335091 5.6750808 11
-13.020095 69.301262 6.475637 10
-13.03084 69.33194 6.8838277 11
-13.022055 69.24118 7.0485625 11
-13.067926 69.174255 8.868784 12
-13.084323 69.375275 8.8566475 11
-12.959085 9.2529516 0.7642625 9
-12.989027 31.385946 0.79667819 8
-12.974513 31.523111 0.80679792 8
-12.980216 31.082167 0.93860418 8
-12.938098 12.366468 1.0250783 11
-12.974297 12.471309 1.067959 11
-12.952626 28.976768 1.0457553 9
-12.912852 10.383671 1.1331136 10
-12.914089 12.41011 1.1929309 10
-12.944469 27.55801 1.1984596 11
-12.93759 27.976093 1.1925576 10
-12.939233 29.420002 1.1860694 10
-12.997618 26.864719 1.2945458 11
-12.950307 26.966043 1.277945 12
-12.987277 27.6388 1.2020296 11
-12.998923 25.700483 1.3950789 11
-12.936106 25.923523 1.3962747 12
-12.919855 26.412088 1.3359045 13
-12.964314 27.46199 1.3383977 10
-12.952798 21.610037 1.4600333 10
-12.97289 21.711477 1.4798536 10
-12.997061 25.520176 1.4307369 15
-12.94803 21.259417 1.5686877 11
-12.987968 26.644209 1.5379713 10
-12.906908 21.989933 1.6966288 13
-12.93223 24.169441 1.6487399 15
-12.916122 24.429371 1.6904267 15
-12.917951 24.811506 1.6279849 14
-12.982929 21.397005 1.7692831 12
-12.994389 24.235449 1.7823112 13
-12.943993 69.402084 3.4057248 9
-12.970724 69.397987 4.0375252 9
-12.974319 69.391212 5.6806731 15
-12.994555 69.204231 8.1658173 11
-12.987921 69.43412 9.2596064 11
-12.967993 69.118469 9.8713074 12
-12.939932 69.049248 11.599107 13
-12.81945 4.7292314 0.067168467 9
-12.879603 6.6587644 0.21590023 8
-12.896107 6.8808856 0.25418901 8
-12.840033 6.997829 0.24747621 8
-12.80156 41.530487 0.400525 9
-12.895445 30.660425 0.88567609 8
-12.808654 31.176172 0.83295226 8
-12.865081 29.743853 0.98153925 9
-12.817088 28.529982 1.1026474 10
-12.816491 28.858143 1.166641 9
-12.852972 12.302619 1.208019 10
-12.890432 26.87623 1.2732675 12
-12.893765 12.350757 1.3613758 11
-12.811594 25.881504 1.3829465 14
-12.894839 25.957052 1.3830631 14
-12.847289 26.33185 1.333845 13
-12.821854 26.471792 1.3617445 12
-12.824921 28.548521 1.329578 9
-12.88508 25.536142 1.4148034 14
-12.85269 21.90346 1.5788683 11
-12.853107 24.858873 1.5074083 14
-12.886776 25.059538 1.5308671 13
-12.869656 21.471525 1.6082737 12
-12.886419 21.931196 1.6483661 12.5
-12.873402 24.913727 1.6859524 13
-12.836081 25.175768 1.6032659 13
-12.805855 24.156649 1.7536279 14
-12.815619 24.202473 1.8052714 14
-12.81436 69.444595 3.4151533 8
-12.864495 69.371132 3.7336063 13
-12.830464 69.348816 5.0960102 9
-12.887328 69.409096 6.0193563 5
-12.8648 69.332466 6.5062299 12
-12.845483 69.26535 6.7839851 10
-12.85984 69.189774 8.4838648 11
-12.875751 69.097641 10.19572 12
-12.847875 69.174507 10.964829 13
-12.882362 69.255096 11.14469 13
-12.892383 68.998398 11.924641 13
-12.785483 -15.289917 -0.1899278 8
-12.770032 6.4814568 -0.12514147 8
-12.739243 -4.2306719 -0.059847556 9
-12.744173 6.4735675 0.21705234 8
-12.728004 7.4222026 0.31675929 8
-12.709449 9.2214508 0.38242966 9
-12.70289 9.4922838 0.76053107 9
-12.737744 9.9429235 0.76604503 9
-12.748214 31.491581 0.79518241 8
-12.748664 10.951419 0.88614398 9
-12.790901 12.449521 0.9932853 11
-12.72298 31.039251 0.92044234 8
-12.785337 12.343553 1.0448505 11
-12.762383 12.419559 1.0541049 11
-12.765279 28.19124 1.094166 10
-12.750684 28.575247 1.1172738 10
-12.731416 28.600355 1.1203331 9
-12.780945 12.207891 1.2029387 10
-12.777033 12.467268 1.2089015 11
-12.723022 26.967409 1.2718021 12
-12.751809 27.074614 1.2560762 11
-12.773402 27.289961 1.2110789 11
-12.765147 27.666901 1.2004952 11
-12.741519 21.536089 1.3971846 10
-12.760196 26.432785 1.3719896 12
-12.778311 26.781208 1.3303202 11
-12.799264 26.969139 1.3314985 10
-12.766232 24.951836 1.4499964 15
-12.781156 25.497606 1.4220206 15
-12.715896 25.540442 1.5390782 12
-12.769318 21.921324 1.6414065 12
-12.744894 24.268919 1.67314 13.75
-12.789339 24.345592 1.6843877 15
-12.714756 24.726221 1.6122611 13
-12.762554 24.236776 1.7658346 13
-12.783551 69.510117 2.2170734 12
-12.740304 69.461128 2.3126347 8
-12.722369 69.468361 2.4609525 8
-12.711216 69.447044 3.3820426 12
-12.785837 69.369995 3.5690842 13
-12.706283 69.435509 4.025918 9
-12.761406 69.413918 4.1071372 9
-12.749794 69.361778 4.2915535 13
-12.779319 69.404381 4.6488905 14
-12.76685 69.298515 5.0833058 9
-12.7605 69.270454 6.758256 15
-12.797929 69.384079 7.507535 6
-12.788186 69.141945 9.0277081 15
-12.676659 6.6932697 -0.11877849 8
-12.653181 6.843503 -0.11606917 8
-12.610346 -10.840995 -0.023024999 10
-12.646679 6.2024789 0.20637925 8
-12.608514 9.4032822 0.3795765 9
-12.678931 9.5398903 0.74482465 9
-12.685813 32.846905 0.76755166 9
-12.605849 31.139692 0.81771791 8
-12.647985 29.794611 0.97730809 9
-12.623755 12.409667 1.0165459 11
-12.668148 29.535675 1.0119063 9
-12.680527 28.135506 1.1508079 10
-12.620281 28.702173 1.1323166 9
-12.660496 28.884724 1.1452146 9
-12.692597 26.650703 1.2861727 11
-12.627613 26.954611 1.2842681 12
-12.660382 27.238522 1.2044852 11
-12.68033 27.649004 1.2094476 11
-12.606584 12.365426 1.34655 11
-12.662506 25.962345 1.3776309 14
-12.690165 26.421564 1.3315156 13
-12.680204 26.919897 1.3064902 11
-12.631886 27.320063 1.3175677 10
-12.681693 27.720209 1.3038085 10
-12.69416 20.882135 1.4406879 10
-12.697984 21.885221 1.4717189 10
-12.683925 25.43368 1.4541656 13
-12.676702 21.420374 1.5952516 12
-12.674857 25.68174 1.5732499 13
-12.635212 25.8277 1.5498919 13
-12.60743 24.057695 1.6466279 15
-12.623436 24.468111 1.6589066 15
-12.628597 24.838879 1.6196817 13
-12.686098 69.465942 2.3442307 8
-12.642117 69.404457 4.624414 10
-12.623782 69.418419 4.8163185 9
-12.630038 69.367401 5.7327762 10
-12.699364 69.289093 5.9453516 15
-12.601947 69.311119 6.4968643 10
-12.678104 69.338524 7.5451841 11
-12.60807 69.280495 7.7877359 13
-12.675727 69.308136 7.8898578 13
-12.677743 69.369743 9.116848 11
-12.681385 69.212433 9.2332745 12
-12.626324 69.149826 10.97761 13
-12.519704 6.9194384 -0.11255452 8
-12.57155 26.834488 0.15420119 8
-12.583094 6.6963868 0.21470691 8
-12.55669 7.3639674 0.246573 8
-12.592013 9.1027241 0.38468063 9
-12.577407 9.5888968 0.74324512 9
-12.595307 30.704996 0.87488019 8
-12.581287 31.454041 0.83948898 8
-12.533221 12.438107 1.182472 10.5
-12.532364 28.22551 1.1420573 10
-12.542313 28.442823 1.1529431 10
-12.577845 28.606815 1.1074055 10
-12.538385 27.098959 1.2840749 10
-12.524027 27.695971 1.2009364 11
-12.549092 28.093687 1.2199247 10
-12.550208 25.9352 1.39142 14
-12.547855 26.279413 1.3504815 12
-12.585584 26.400959 1.3447604 13
-12.554372 21.43261 1.4286759 10
-12.572587 21.81872 1.441852 10
-12.503781 25.090252 1.4539081 15
-12.52074 25.547199 1.4304643 15
-12.588109 26.368574 1.4658123 12
-12.584779 25.005402 1.5015526 14
-12.524669 25.600822 1.5566885 12
-12.529709 24.283003 1.6649988 14.5
-12.56437 24.30055 1.628181 12
-12.55246 24.040091 1.7655293 14
-12.538066 24.257494 1.7549322 14
-12.590289 69.388824 3.3517244 8
-12.505912 69.467072 3.422061 8
-12.585824 69.334541 3.9244413 9
-12.524919 69.373955 5.1033211 9
-12.55846 69.387413 5.807817 10
-12.547051 69.400795 5.8218269 10
-12.543479 69.28611 6.7909107 10
-12.578389 69.225838 8.1890812 11
-12.560261 69.218452 8.49226 11
-12.532201 69.241959 9.1763468 12
-12.516912 69.271118 9.2156982 12
-12.554922 69.135971 9.8942757 12
-12.579741 69.122231 10.203609 12
-12.530293 69.057678 11.620334 13
-12.598033 69.040375 11.937081 13
-12.463611 8.5902443 0.33784753 8
-12.477164 10.693722 0.6970008 10
-12.476772 11.335479 0.86290252 9
-12.494269 29.525988 0.99589372 9
-12.476601 28.239702 1.0998522 10
-12.438713 29.749737 1.0224916 9
-12.459069 12.393764 1.1809318 11
-12.417756 28.423737 1.1279607 10
-12.462973 28.680523 1.1109096 9
-12.486385 28.884548 1.1250322 9
-12.450186 29.111403 1.1312492 9
-12.493005 12.362118 1.2083451 10
-12.429182 20.420284 1.2450253 9
-12.444861 26.464064 1.2958871 12
-12.482512 26.993319 1.2733587 12
-12.418225 27.315779 1.2845713 11
-12.496018 27.528122 1.2373072 11
-12.42353 25.994423 1.3839042 14
-12.450832 26.456486 1.33675 13
-12.438438 26.856485 1.3124825 12
-12.49599 27.411472 1.3045452 10
-12.489626 21.401009 1.4225097 10
-12.418825 21.578211 1.4073044 10
-12.436813 21.765854 1.4493613 10
-12.4578 26.253315 1.4477049 11
-12.443361 26.630075 1.4141419 11
-12.435507 21.470598 1.5928577 12
-12.451401 24.491571 1.5944995 12
-12.439974 24.268805 1.6843983 14
-12.494095 24.187649 1.7057722 15
-12.436522 24.234007 1.7970874 14
-12.438737 69.496841 2.3227596 8
-12.450639 69.472984 3.3879929 9
-12.470348 69.355774 5.6629434 11
-12.440683 69.362381 7.196527 10
-12.452272 69.312546 7.9047608 13
-12.402467 69.220642 8.5160131 11
-12.441582 69.2743 9.0619564 14
-12.424128 69.131386 10.229165 12
-12.47071 69.214638 10.964344 13
-12.44527 69.049774 11.963337 13
-12.411155 68.931091 12.448786 13
-12.339047 7.9210505 0.29447448 8
-12.327113 8.2271595 0.36371765 8
-12.38709 9.6941118 0.77210331 9
-12.397433 10.838954 0.87952977 9
-12.323717 11.072609 0.89308691 9
-12.382828 31.538429 0.84517109 8
-12.386301 28.487772 1.1251242 9
-12.33814 28.547449 1.151486 10
-12.31223 26.898739 1.2991376 12
-12.30015 27.163177 1.280146 10
-12.357924 27.558086 1.2227368 11
-12.311257 25.361328 1.3949671 14
-12.391508 25.933912 1.3660419 12
-12.33484 26.244967 1.3466812 13
-12.392218 26.317381 1.372914 13
-12.378248 27.330448 1.300483 10
-12.373885 24.981222 1.4985811 14
-12.388189 25.10318 1.454079 15
-12.317152 25.354982 1.4387089 15
-12.321102 25.485565 1.4592313 15
-12.348942 25.840139 1.4351705 12.5
-12.371586 26.160879 1.457545 11
-12.39002 26.292032 1.4350615 11
-12.35664 26.72238 1.4296032 11
-12.328466 21.324015 1.5248386 11
-12.316676 25.407875 1.5825626 14
-12.354101 21.946795 1.6225865 12.5
-12.31068 24.09123 1.661257 15
-12.338707 24.103636 1.6349484 15
-12.338355 24.299692 1.6649346 14
-12.353969 24.301325 1.6745484 14
-12.393869 24.550177 1.6672112 15
-12.397475 24.647503 1.6692785 15
