# .PCD v0.7 - Point Cloud Data file format
VERSION 0.7
FIELDS x y z intensity
SIZE 4 4 4 4
TYPE F F F F
COUNT 1 1 1 1
WIDTH 234
HEIGHT 1
VIEWPOINT 0 0 0 1 0 0 0
POINTS 234
DATA ascii
-37.607967 -5.4204073 4.6653628 11
-37.590263 -5.4178624 0.66288489 8
-37.594318 -5.4184432 3.3230317 10
-37.240444 -5.9127297 7.3294582 13
-36.837196 -6.3905649 1.9593627 9
-36.875149 -6.3971443 5.9276657 12
-36.510017 -6.8735065 8.5770683 14
-35.437992 -8.2612457 3.183542 10
-34.749348 -9.1569157 4.4123392 11
-34.771908 -9.1628571 6.9897256 13
-34.40081 -9.5937185 0.62336451 8
-34.435562 -9.6033974 8.2534781 14
-34.07777 -10.031502 1.8617069 9
-33.106052 -11.311048 5.5411215 12
-32.782917 -11.727301 3.0461457 10
-32.493332 -12.151071 9.2955246 15
-32.149731 -12.55001 0.60241443 8
-32.165695 -12.556236 1.8096313 9
-32.16468 -12.555829 7.9716196 14
-31.534435 -13.362211 4.2052603 11
-31.241024 -13.76862 6.6363492 13
-30.940042 -14.168282 2.9772677 10
-30.938326 -14.167492 5.3895774 12
-30.325785 -14.951491 0.59018785 8
-30.323586 -14.950406 1.7718771 9
-30.353968 -14.965371 7.8133435 14
-30.349291 -14.963063 9.0668898 15
-24.221531 -22.959871 4.0980587 11
-24.237724 -22.975214 6.4919577 13
-24.237555 -22.975054 7.7105284 14
-23.925486 -23.33849 1.7517543 9
-23.928352 -23.341284 2.9246781 10
-23.336601 -24.10578 0.58570373 8
-23.349792 -24.119387 8.9955931 15
-23.047504 -24.499397 5.327796 12
-22.158901 -25.68009 6.5935521 13
-21.856628 -26.075312 7.8555546 14
-21.542732 -26.461208 0.59567422 8
-21.543045 -26.46159 2.9855158 10
-21.549891 -26.469994 4.1912875 11
-21.558884 -26.48103 9.1502867 15
-21.239794 -26.865614 1.7949871 9
-20.93409 -27.272503 5.4457293 12
-17.621187 -13.233128 0.38468739 8
-17.675566 -12.498963 1.1346086 9
-17.61352 -13.626019 1.9483991 10
-17.608986 -13.622512 2.7337406 11
-17.698336 -12.138803 3.3992927 12
-17.649895 -12.863702 4.2455368 13
-17.616049 -13.627969 5.14222 14
-17.626583 -13.636117 5.9717073 15
-16.896229 69.189522 8.7453651 11
-14.834435 69.298332 6.2004027 10
-13.845219 10.39672 1.5148269 10
-13.837561 10.390968 2.1247981 11
-13.854494 10.403686 2.744221 12
-13.838713 10.39183 3.3640685 13
-13.858784 10.406906 4.0013514 14
-13.853796 10.403157 4.642364 15
-5.7501068 -9.2842808 0.19068211 8
-5.7499495 -9.2840261 0.57246017 9
-5.7504458 -9.2848253 0.95572579 10
-5.7589025 -9.2984829 1.3432633 11
-5.737565 -9.2640238 1.7263014 12
-5.7441106 -9.2745914 2.1210487 13
-5.7508001 -9.2853947 2.5221293 14
-5.754271 -9.2909985 2.9289856 15
-3.8551471 -9.1943226 0.17409621 8
-3.8507605 -9.183856 0.52207887 9
-3.8522899 -9.1875038 0.87188226 10
-3.8536263 -9.1906891 1.2240456 11
-3.8495281 -9.1809139 1.5772578 12
-3.848731 -9.1790113 1.9353143 13
-3.848345 -9.1780901 2.2983654 14
-3.8537014 -9.1908655 2.6712277 15
-1.9942719 17.938498 0.94609302 9
-1.9949014 17.944145 1.5798937 10
-1.9942752 17.938496 2.2165809 11
-1.9932742 17.929468 2.857815 12
-1.9942559 17.93829 3.5090344 13
-1.9936396 17.932726 4.1664386 14
-0.44725063 18.021505 0.31473112 8
-0.44726184 18.021887 0.9449836 9
-0.44738716 18.026869 1.5779768 10
-0.44731477 18.023872 2.2142186 11
4.1172905 11.416276 3.2487411 15
4.2134733 -8.7685843 0.16990703 8
4.2133474 -8.7683182 0.51007545 9
4.2126431 -8.7668505 0.85135418 10
4.2081499 -8.7574892 1.1935354 11
4.2172203 -8.7763805 1.5428989 12
4.2138739 -8.7694092 1.8920441 13
4.2171903 -8.7763147 2.2489715 14
4.216536 -8.774951 2.6097825 15
4.4388971 11.28566 0.21141589 8
4.4355931 11.277263 0.63443321 9
4.4328041 11.270175 1.0584931 10
4.4308677 11.265252 1.4849041 11
4.6239419 11.279748 1.9289918 12
4.8255191 11.307832 2.8357735 14
5.1459656 -8.7053375 0.17661029 8
5.0198708 11.312238 2.4034545 13
5.5834217 47.392902 5.8576074 11
5.9661393 5.589963 0.14252293 8
5.9566741 5.5811081 0.42732283 9
5.9656358 5.5894938 0.71446776 10
5.9647794 5.5886931 1.0025816 11
5.9537859 5.5784092 1.2908956 12
5.9551234 5.5796599 1.5846416 13
6.1239247 4.8225799 0.13589148 8
6.1912622 4.7337108 0.40802324 9
6.1241407 4.822751 0.68129772 10
6.1930747 4.7350955 0.95627618 11
6.0427799 11.351532 1.124084 10
6.1866579 4.7301989 1.2322692 12
6.1236558 4.822372 1.5136184 13
6.0464673 11.358453 2.0362785 12
6.0461402 11.35784 2.9680417 14
6.0463057 11.358151 3.4448612 15
6.3227034 -1.5102409 -0.11348229 7
6.3728957 -1.235552 0.11330648 8
6.3253241 -1.4154037 0.33970824 9
6.3084941 -1.5068269 0.56748521 10
6.3686395 -1.2347188 0.79654491 11
6.2554603 11.356334 0.67885637 9
6.3439589 -1.3244631 1.0264863 12
6.3024578 -1.5053748 1.2596257 13
6.3424907 -1.3241526 1.4959081 14
6.3573546 -1.9094374 1.7788633 15
6.4854407 -2.1524966 -0.11929854 7
6.5229101 -0.97621548 -0.11513165 7
6.4903421 -2.1541276 0.11938228 8
6.4769096 -2.149653 0.35770255 9
6.484314 11.383324 0.22841607 8
6.4688983 -2.1469834 0.59640592 10
6.4825635 -2.1515343 0.83878607 11
6.4832454 -2.1517606 1.0820968 12
6.4694366 -2.1471601 1.3251952 13
6.4871626 -2.1530626 1.5782664 14
6.5992908 -0.89129502 1.7842451 15
6.7976618 -0.72077531 1.5780334 14
6.8075986 -0.7218464 0.11947399 8
6.9153013 4.4021716 0.14293773 8
6.8072033 -0.72180307 0.3587133 9
6.899219 4.3919544 0.42823896 9
6.8221965 -0.72340965 0.60015619 10
6.9101558 4.3989048 0.71605361 10
6.8246727 -0.723674 0.84258944 11
6.8155208 -0.72269189 1.0854331 12
6.9095325 4.398509 1.0048586 11
6.8195138 -0.7231189 1.3329012 13
6.9164333 4.402894 1.2975107 12
6.9252892 4.4085212 1.5944422 13
7.4001794 11.41864 1.6694143 11
7.4024529 11.422146 2.1541243 12
7.4065566 11.428473 3.1417229 14
7.4066701 11.428648 3.646399 15
7.6506462 11.442958 1.203333 10
7.8992453 11.456524 0.2426523 8
7.8891668 11.441919 2.6995285 13
8.1494837 11.464872 0.73659045 9
8.9454918 11.505116 1.7881783 11
8.9411459 11.499534 3.3606949 14
9.0902195 47.566734 0.84482425 8
9.0923471 47.577854 2.5376737 9
9.0918283 47.575115 4.236289 10
9.2229891 11.51799 1.2900543 10
9.5145884 11.539694 0.26082224 8
9.5095673 11.533613 2.3660662 12
9.8076086 11.554129 0.79370534 9
9.8043356 11.550279 2.9430888 13
9.8081503 11.554771 4.0585957 15
10.635899 2.8992534 0.19232239 8
10.632239 2.8982601 0.57730931 9
10.619333 2.8947535 0.96260446 10
10.628596 2.8972728 1.352145 11
10.863544 1.9795425 0.19266269 8
10.842235 1.9756773 0.5773859 9
10.853511 1.9777246 0.9649018 10
10.845096 1.9761989 1.3531382 11
11.760308 11.659497 3.8212557 14
11.767479 11.666604 4.437726 15
18.192913 -8.7887678 1.0589828 9
18.196959 -9.1143847 2.4991574 11
18.161102 -8.4547911 3.1731644 12
18.16032 -8.454423 3.8941572 13
18.152042 -8.4505615 4.623035 14
18.148003 -8.1345377 5.3293662 15
18.339977 -11.615978 0.37899512 8
18.229225 -9.4594975 0.35852703 8
18.296637 -10.867122 1.115406 9
18.253675 -10.145979 1.8273137 10
18.354567 -11.996912 2.6927028 11
18.287781 -10.861847 3.3692701 12
18.323868 -11.605752 4.2166319 13
18.271118 -10.500937 4.8658142 14
18.244608 -10.140921 5.5936608 15
18.516211 -14.947818 0.41545728 8
18.45842 -14.047403 1.2158197 9
18.433529 -13.616035 2.0052619 10
18.511513 -14.944011 2.9215479 11
18.426268 -13.610664 3.628762 12
18.457884 -14.046983 4.5092716 13
18.421444 -13.607094 5.2880478 14
18.438715 -14.03238 6.2094707 15
28.702333 18.826616 7.9230447 14
28.689205 18.818007 9.1914234 15
28.956898 14.049414 5.0966315 12
28.873005 15.5738 7.5722117 14
28.867527 15.570848 8.7867775 15
29.042192 12.580788 0.55224413 8
29.056438 12.586958 1.6591331 9
29.012497 13.064201 2.7831492 10
29.055256 12.095582 3.8635907 11
29.116419 11.154394 4.9375477 12
29.084209 11.622089 6.0869951 13
29.011703 12.567611 7.2980094 14
29.036158 12.087652 8.4259949 15
29.262852 7.9621043 4.8025794 12
29.255028 7.9599824 5.8925023 13
29.399422 5.3429585 6.8977857 14
29.208311 9.3111038 7.0765367 14
29.372421 5.7735496 8.0199862 15
29.218046 8.8555708 8.1794434 15
29.508633 3.2053967 4.7007523 12
29.485756 3.6306748 5.7741737 13
29.577776 1.9328856 6.8426056 14
29.592876 1.5088058 7.9391198 15
29.62211 1.5102594 0.51763225 8
29.640961 1.0860792 1.5543076 9
29.664274 0.66189969 2.5957334 10
29.615116 1.5099168 3.6407096 11
29.653837 0.66167802 4.6975603 12
29.667408 0.23717315 5.7665954 13
