# .PCD v0.7 - Point Cloud Data file format
VERSION 0.7
FIELDS x y z intensity
SIZE 4 4 4 4
TYPE F F F F
COUNT 1 1 1 1
WIDTH 1327
HEIGHT 1
VIEWPOINT 0 0 0 1 0 0 0
POINTS 1327
DATA ascii
0.85699481 -2.0345731 -0.33327213 0
0.95759517 -2.0718639 -0.3337687 0
1.0502324 -2.0377114 -0.33250213 0
1.153432 -2.0540555 -0.33190367 0
1.2507482 -2.0299957 -0.33197743 0
1.3471482 -2.0419638 -0.3315694 0
1.4496349 -2.0659459 -0.33109072 0
1.5641313 -2.0470717 -0.33018908 0
1.657045 -2.0449502 -0.32917565 0
1.7452263 -2.0515869 -0.33086351 0
1.8111429 -2.0095463 -0.33272055 0
-2.0101373 -1.9326389 -0.34239328 0
-1.9525025 -1.9707009 -0.34299222 0
-1.842971 -1.9307593 -0.34088731 0
-1.7592502 -1.9611864 -0.34163737 0
-1.6511221 -1.9408593 -0.34232521 0
-1.5473953 -1.9567744 -0.34124282 0
-1.4415044 -1.934177 -0.34160557 0
-1.3461963 -1.957738 -0.34045663 0
-1.253662 -1.9604735 -0.34125555 0
-1.1585124 -1.9441402 -0.33960605 0
-1.0455502 -1.9481487 -0.34119269 0
-0.95294857 -1.9298105 -0.33825511 0
-0.83655787 -1.9707992 -0.33932406 0
-0.75788319 -1.9510623 -0.33921334 0
-0.64555395 -1.9583302 -0.33870864 0
-0.54891986 -1.9424461 -0.33874583 0
-0.46187663 -1.9372432 -0.33758712 0
-0.3441214 -1.9427631 -0.3375144 0
-0.24732636 -1.9645472 -0.33741882 0
-0.14769419 -1.9614513 -0.33640167 0
-0.049411997 -1.9714413 -0.33647618 0
0.049105857 -1.9583882 -0.33478346 0
0.14736576 -1.9578067 -0.3353835 0
0.24569419 -1.9522189 -0.33497846 0
0.35657129 -1.9318383 -0.33510023 0
0.4544948 -1.9441855 -0.33396879 0
0.53962386 -1.9624828 -0.33475983 0
0.66733229 -1.9563431 -0.33441404 0
0.75292701 -1.9496286 -0.33287376 0
0.85715455 -1.9263321 -0.3339645 0
0.94499499 -1.9460348 -0.33351421 0
1.0593891 -1.9402256 -0.33198556 0
1.1521639 -1.9523758 -0.3317754 0
1.2499722 -1.9443011 -0.33291927 0
1.3378302 -1.9359131 -0.33151278 0
1.4548006 -1.9520774 -0.33077836 0
1.5533772 -1.9548149 -0.32968095 0
1.6468793 -1.9545304 -0.33102319 0
1.7460942 -1.9373759 -0.3309865 0
1.8593147 -1.9339716 -0.32957041 0
-2.1400583 -1.8073598 -0.34393653 0
-2.0561213 -1.8550025 -0.34169406 0
-1.9412445 -1.8398136 -0.34213209 0
-1.8579302 -1.8470674 -0.34405971 0
-1.7534908 -1.8634872 -0.34106606 0
-1.6666155 -1.8492264 -0.34098256 0
-1.5513868 -1.8502234 -0.34170666 0
-1.4497105 -1.8510917 -0.34099928 0
-1.3500369 -1.8665495 -0.34126851 0
-1.2456069 -1.8589389 -0.34087604 0
-1.1459103 -1.8204839 -0.34104046 0
-1.0479852 -1.8558909 -0.34006509 0
-0.95555937 -1.8474661 -0.33975413 0
-0.84418917 -1.8612213 -0.3380008 0
-0.75325155 -1.8325417 -0.33877218 0
-0.6383149 -1.8553498 -0.33809775 0
-0.54328823 -1.821517 -0.33865622 0
-0.44991389 -1.8406025 -0.33741954 0
-0.35681325 -1.8586023 -0.33714885 0
-0.24085999 -1.8509895 -0.33809832 0
-0.14840381 -1.8670576 -0.3364884 0
-0.053676348 -1.8459996 -0.33671489 0
0.054449312 -1.8629875 -0.33467844 0
0.15312478 -1.8555158 -0.33583283 0
0.24680914 -1.8535174 -0.33586377 0
0.34214935 -1.8536694 -0.33524814 0
0.44691163 -1.8286698 -0.33459601 0
0.54307431 -1.8600008 -0.33439529 0
0.65257061 -1.8451095 -0.3337335 0
0.75298738 -1.8317769 -0.33364201 0
0.84266621 -1.8579953 -0.33415473 0
0.95514172 -1.8622806 -0.33325607 0
1.0448761 -1.8297684 -0.3318162 0
1.1534125 -1.8617741 -0.33296606 0
1.2558511 -1.8546408 -0.33177292 0
1.3536339 -1.8436325 -0.33138597 0
1.4585611 -1.8443274 -0.33087045 0
1.5682421 -1.870435 -0.33143115 0
1.6479287 -1.8549247 -0.33178511 0
1.7510055 -1.8518133 -0.3301239 0
1.8515005 -1.8316725 -0.3303827 0
1.954627 -1.8436589 -0.33018559 0
-2.2062488 -1.7065498 -0.34247479 0
-2.1516457 -1.7546288 -0.34367004 0
-2.0278289 -1.7375433 -0.34224713 0
-1.9447751 -1.756754 -0.34211311 0
-1.8456533 -1.7491672 -0.3412607 0
-1.7510076 -1.7572415 -0.34257734 0
-1.6494576 -1.7528992 -0.34070349 0
-1.5570809 -1.7528672 -0.3411513 0
-1.4560425 -1.7469002 -0.34122354 0
-1.3359952 -1.7400488 -0.34080353 0
-1.2462258 -1.7491833 -0.34049061 0
-1.1479703 -1.739998 -0.34086514 0
-1.0526413 -1.7549965 -0.33968508 0
-0.95972925 -1.737988 -0.33983099 0
-0.85471231 -1.7621031 -0.3391076 0
-0.74827832 -1.748677 -0.33882391 0
-0.6479919 -1.7520431 -0.33850473 0
-0.54591215 -1.7393225 -0.33892328 0
-0.44330624 -1.7589866 -0.3372007 0
-0.3469308 -1.7412628 -0.33746237 0
-0.25689536 -1.7290968 -0.33811271 0
-0.15074237 -1.737036 -0.33591837 0
-0.055804506 -1.7319988 -0.33688372 0
0.040134616 -1.7405655 -0.33428279 0
0.14330651 -1.7368069 -0.33570459 0
0.23277278 -1.7456812 -0.33570847 0
0.34016246 -1.73757 -0.33637002 0
0.45132035 -1.7387593 -0.33382106 0
0.54520196 -1.7516689 -0.33389059 0
0.65188825 -1.7623239 -0.33394036 0
0.76146901 -1.7378553 -0.33447632 0
0.85734606 -1.7552326 -0.33333966 0
0.94465017 -1.7583396 -0.33223048 0
1.0579873 -1.7541081 -0.33208138 0
1.1544211 -1.7608179 -0.3336646 0
1.2455301 -1.7483008 -0.33178943 0
1.3518386 -1.7347479 -0.3310619 0
1.4579176 -1.7389841 -0.33169031 0
1.5624369 -1.758797 -0.33143011 0
1.6778218 -1.7578197 -0.33002424 0
1.7486153 -1.755186 -0.33054292 0
1.8190718 -1.7489182 -0.33053955 0
1.9263824 -1.748765 -0.32986021 0
2.0344796 -1.7559507 -0.33018893 0
-2.2515881 -1.6407785 -0.34432283 0
-2.147769 -1.6451372 -0.34274152 0
-2.0630894 -1.659809 -0.34326696 0
-1.9578027 -1.6534319 -0.34233326 0
-1.8488081 -1.654361 -0.34183249 0
-1.7533212 -1.6617123 -0.34187528 0
-1.6554923 -1.637794 -0.34182176 0
-1.5464163 -1.6434045 -0.34051776 0
-1.4302329 -1.633284 -0.34168872 0
-1.3597112 -1.663609 -0.34045473 0
-1.2478752 -1.6494828 -0.34061298 0
-1.1499028 -1.6387503 -0.3395516 0
-1.0588243 -1.6557643 -0.34039101 0
-0.95635426 -1.6475239 -0.33962992 0
-0.85250849 -1.6445475 -0.33946836 0
-0.74162424 -1.6666542 -0.33892739 0
-0.65197289 -1.6362357 -0.33861735 0
-0.55311829 -1.6454983 -0.3383593 0
-0.45191514 -1.6593026 -0.33775267 0
-0.3540017 -1.6637671 -0.33638555 0
-0.24550337 -1.6616319 -0.33778828 0
-0.14596966 -1.6457794 -0.33675051 0
-0.053446334 -1.6568699 -0.33709085 0
0.041193649 -1.6419402 -0.33529624 0
0.14465216 -1.6557142 -0.33570567 0
0.25959125 -1.6740386 -0.3347173 0
0.36003131 -1.667783 -0.33559981 0
0.45062056 -1.6429367 -0.33379686 0
0.54977584 -1.6281881 -0.33329621 0
0.63630134 -1.6476008 -0.33542934 0
0.75505716 -1.63379 -0.33438274 0
0.84592378 -1.6706215 -0.33319587 0
0.947478 -1.6480519 -0.33225754 0
1.0501795 -1.6421183 -0.33287752 0
1.1382967 -1.6675751 -0.33279103 0
1.2492642 -1.6574721 -0.33135179 0
1.3456304 -1.6285152 -0.33265641 0
1.4379698 -1.6421704 -0.33203614 0
1.5497895 -1.6472075 -0.33089018 0
1.6493715 -1.6506422 -0.33112225 0
1.7618949 -1.6460204 -0.3303397 0
1.8556856 -1.6526991 -0.3302587 0
1.9432858 -1.6492995 -0.33017313 0
2.0401614 -1.6492637 -0.32942539 0
2.1251206 -1.6437881 -0.32988912 0
-2.3301666 -1.5494491 -0.34445861 0
-2.2442698 -1.5391034 -0.34391481 0
-2.1589313 -1.5420966 -0.34420565 0
-2.0553961 -1.5433509 -0.34310794 0
-1.9561862 -1.558332 -0.34239638 0
-1.8543285 -1.5433609 -0.3418999 0
-1.7458674 -1.539884 -0.34165126 0
-1.6403344 -1.5324314 -0.34196064 0
-1.5405004 -1.5272615 -0.34187523 0
-1.4655052 -1.5574121 -0.34032044 0
-1.3453984 -1.5587972 -0.34099844 0
-1.2443285 -1.5505757 -0.34022865 0
-1.1589261 -1.5366306 -0.34028882 0
-1.0464983 -1.5469842 -0.3388066 0
-0.93517256 -1.5421177 -0.34030303 0
-0.84635049 -1.5356269 -0.33921379 0
-0.75213724 -1.5603988 -0.34003451 0
-0.66380197 -1.5641757 -0.33830228 0
-0.55319744 -1.5446104 -0.33773464 0
-0.45084262 -1.5518076 -0.33878547 0
-0.336775 -1.5492651 -0.33652097 0
-0.24599417 -1.5542502 -0.33712143 0
-0.14918767 -1.539615 -0.33739403 0
-0.050066363 -1.5532111 -0.33663237 0
0.05729112 -1.5420117 -0.33623859 0
0.15520045 -1.5509552 -0.33575299 0
0.2352611 -1.547888 -0.33520409 0
0.34708428 -1.5498569 -0.33712861 0
0.45398286 -1.5486819 -0.33277327 0
0.54512125 -1.5407454 -0.33432004 0
0.65626061 -1.5645181 -0.33499858 0
0.73842543 -1.5446948 -0.33377409 0
0.83871269 -1.5534649 -0.33281663 0
0.95132285 -1.5502065 -0.33218423 0
1.0550196 -1.5501525 -0.33322215 0
1.1525167 -1.5509765 -0.3318817 0
1.2533811 -1.5528643 -0.3322475 0
1.3539973 -1.546291 -0.33186054 0
1.4323145 -1.5442346 -0.33163247 0
1.5361319 -1.54161 -0.33102745 0
1.6513041 -1.5427065 -0.33054739 0
1.7579466 -1.5504616 -0.33032608 0
1.8547764 -1.5438213 -0.33040777 0
1.9533466 -1.5486616 -0.33011913 0
2.0526025 -1.5488243 -0.32951543 0
2.1594338 -1.550097 -0.32855341 0
-2.4200933 -1.4165585 -0.34431088 0
-2.3608403 -1.4647224 -0.34316209 0
-2.2557709 -1.4539019 -0.34391654 0
-2.1608267 -1.4368714 -0.34375712 0
-2.0464008 -1.4468838 -0.34342143 0
-1.9451212 -1.4388456 -0.34286025 0
-1.845812 -1.4277443 -0.34253421 0
-1.7483909 -1.4341875 -0.34152448 0
-1.6265129 -1.4345201 -0.34148476 0
-1.558921 -1.4563897 -0.34121203 0
-1.4504218 -1.4556406 -0.341407 0
-1.3537028 -1.459363 -0.34025005 0
-1.247928 -1.4458507 -0.34038797 0
-1.1441129 -1.4256979 -0.33994934 0
-1.0381845 -1.4353575 -0.33926332 0
-0.94256192 -1.450999 -0.33844364 0
-0.85050708 -1.4651062 -0.33933499 0
-0.75518209 -1.4397072 -0.33903399 0
-0.63957959 -1.4657394 -0.33853066 0
-0.55374479 -1.4337533 -0.33802554 0
-0.43805918 -1.437245 -0.33981231 0
-0.35453048 -1.4315748 -0.33606699 0
-0.24777299 -1.4396807 -0.33750758 0
-0.15030353 -1.4526752 -0.33775893 0
-0.057407063 -1.4560046 -0.33721167 0
0.049926184 -1.458048 -0.3371534 0
0.1507283 -1.4473972 -0.33635315 0
0.25696239 -1.4340611 -0.33435708 0
0.34275702 -1.4392943 -0.33806944 0
0.45635572 -1.4537699 -0.33455062 0
0.56391728 -1.4386139 -0.33521551 0
0.64805001 -1.4565824 -0.3345533 0
0.74650663 -1.4488176 -0.33334693 0
0.85249668 -1.4595141 -0.33205494 0
0.94803631 -1.43926 -0.33338779 0
1.0510842 -1.4535828 -0.33302584 0
1.1585937 -1.4650536 -0.33207235 0
1.2504834 -1.4488909 -0.33274567 0
1.3483728 -1.4451778 -0.33162174 0
1.4648305 -1.4596341 -0.3315621 0
1.5356979 -1.4347003 -0.33088467 0
1.645062 -1.4509068 -0.33041701 0
1.7394987 -1.4478698 -0.33081675 0
1.8480479 -1.4507174 -0.33059749 0
1.9536328 -1.4451634 -0.32964537 0
2.0537353 -1.4519603 -0.3289772 0
2.1581328 -1.4573636 -0.32849991 0
2.2332449 -1.4620919 -0.32776919 0
-2.4418194 -1.3460033 -0.3441318 0
-2.3275163 -1.3624218 -0.34352005 0
-2.2196972 -1.3423721 -0.34307006 0
-2.1286619 -1.3291091 -0.34308803 0
-2.0515821 -1.3503752 -0.34385848 0
-1.9456373 -1.3342658 -0.34335759 0
-1.8444071 -1.3307854 -0.34246305 0
-1.7376239 -1.3359215 -0.34174237 0
-1.6616219 -1.3580133 -0.3414008 0
-1.5560331 -1.3527012 -0.34155685 0
-1.4564872 -1.3606973 -0.34141985 0
-1.3504399 -1.3552929 -0.3410446 0
-1.2371582 -1.3531404 -0.34089863 0
-1.1474696 -1.3294981 -0.34143171 0
-1.0632262 -1.3522511 -0.33935994 0
-0.94685811 -1.3494078 -0.33826661 0
-0.8394497 -1.35507 -0.34006473 0
-0.73341995 -1.3356043 -0.34055829 0
-0.65085125 -1.336526 -0.33789396 0
-0.55644381 -1.3517715 -0.33796632 0
-0.45859471 -1.3581867 -0.33868489 0
-0.34115678 -1.3602084 -0.33475682 0
-0.24314409 -1.3407208 -0.33725479 0
-0.14995313 -1.3462269 -0.33657521 0
-0.053068303 -1.3466327 -0.33539811 0
0.048632994 -1.351347 -0.33662599 0
0.14961596 -1.3451449 -0.33589888 0
0.251333 -1.3542496 -0.33555466 0
0.36848265 -1.3609508 -0.3342011 0
0.44997591 -1.3651937 -0.33618203 0
0.54777205 -1.3408146 -0.33474034 0
0.64387447 -1.3560232 -0.33447114 0
0.75399125 -1.3534513 -0.33552969 0
0.85447955 -1.3361602 -0.33262709 0
0.95918685 -1.375743 -0.3333796 0
1.0448421 -1.340837 -0.33240554 0
1.1483282 -1.3498911 -0.33341244 0
1.2544231 -1.3524239 -0.33152765 0
1.342983 -1.3478527 -0.33123159 0
1.4488631 -1.3456786 -0.33124015 0
1.5593122 -1.3555573 -0.33079204 0
1.6398062 -1.3451463 -0.33131441 0
1.7433599 -1.3553354 -0.33133575 0
1.830546 -1.3541143 -0.32971457 0
1.9433708 -1.3532901 -0.32988325 0
2.0301292 -1.3499422 -0.32969701 0
2.1378827 -1.3563725 -0.32815027 0
2.2384245 -1.3610259 -0.3282764 0
2.3306677 -1.3307317 -0.32959396 0
-2.5213294 -1.220554 -0.34395531 0
-2.4719906 -1.2628555 -0.3433874 0
-2.3715088 -1.2546813 -0.34346971 0
-2.2571678 -1.2358489 -0.34354234 0
-2.1654916 -1.2467785 -0.34276009 0
-2.0554805 -1.2430484 -0.34302682 0
-1.9701743 -1.2498684 -0.34261239 0
-1.8481162 -1.2289246 -0.34346193 0
-1.7574236 -1.2539622 -0.34229827 0
-1.6454918 -1.2504042 -0.34229755 0
-1.5548297 -1.2570065 -0.34167689 0
-1.4482466 -1.2589544 -0.34167701 0
-1.3499477 -1.2430956 -0.34128436 0
-1.2469678 -1.2372624 -0.34098533 0
-1.1571364 -1.2581203 -0.34035414 0
-1.0547476 -1.2435561 -0.33975333 0
-0.9543249 -1.2428747 -0.33758664 0
-0.84364641 -1.236014 -0.33944413 0
-0.75141585 -1.2550545 -0.3403309 0
-0.65686065 -1.2522202 -0.33797309 0
-0.54489487 -1.2539561 -0.33765265 0
-0.45107749 -1.2470087 -0.33766007 0
-0.34169868 -1.2424502 -0.33730492 0
-0.2590878 -1.2395784 -0.33672851 0
-0.14767195 -1.2445868 -0.33592495 0
-0.049033109 -1.2443602 -0.33375186 0
0.04926591 -1.2530144 -0.33610347 0
0.15640295 -1.2425113 -0.33565673 0
0.25156292 -1.2426804 -0.33484048 0
0.34356049 -1.2396972 -0.33703011 0
0.4532479 -1.243609 -0.33443642 0
0.54457623 -1.2478311 -0.33558732 0
0.65731436 -1.2646435 -0.33457237 0
0.7492519 -1.2457733 -0.33410183 0
0.84051251 -1.2397344 -0.33330494 0
0.94298571 -1.2616129 -0.33302084 0
1.0474427 -1.241352 -0.33360547 0
1.1548152 -1.2450182 -0.3322047 0
1.2620611 -1.2665603 -0.33196199 0
1.3523968 -1.2455167 -0.33136764 0
1.4503156 -1.2549022 -0.33130503 0
1.5450939 -1.2490654 -0.33173573 0
1.6523403 -1.2594049 -0.33067277 0
1.7397398 -1.2488066 -0.33091432 0
1.8590536 -1.2553989 -0.33078763 0
1.9576278 -1.2420186 -0.32901993 0
2.064081 -1.2684044 -0.3286531 0
2.1503665 -1.2519192 -0.32926756 0
2.2553852 -1.2559674 -0.32947338 0
2.3580422 -1.2475345 -0.32756215 0
2.4058268 -1.2074521 -0.33074549 0
-2.5380836 -1.153259 -0.34483394 0
-2.4281483 -1.154045 -0.34407422 0
-2.3314297 -1.1493145 -0.34361586 0
-2.2353573 -1.1419492 -0.34319076 0
-2.1325145 -1.1477952 -0.34307557 0
-2.0279329 -1.1482573 -0.34240499 0
-1.9309678 -1.1490033 -0.3424291 0
-1.8362225 -1.1419712 -0.34298509 0
-1.745816 -1.1465824 -0.3425799 0
-1.6449957 -1.1631523 -0.34189391 0
-1.5344502 -1.1522225 -0.34204644 0
-1.4398429 -1.1470587 -0.34223929 0
-1.3375925 -1.146096 -0.34243348 0
-1.2591118 -1.1594898 -0.3409133 0
-1.1527668 -1.1403829 -0.3406513 0
-1.0527569 -1.1348709 -0.34057701 0
-0.94880801 -1.1294881 -0.33856171 0
-0.85158801 -1.1550705 -0.33688554 0
-0.74458969 -1.1538374 -0.3400102 0
-0.63388002 -1.1383725 -0.34019598 0
-0.54846931 -1.1418413 -0.33813256 0
-0.44579595 -1.1612304 -0.33764148 0
-0.36454755 -1.1614038 -0.33633891 0
-0.24264693 -1.1465782 -0.33711663 0
-0.1489518 -1.1477301 -0.33617198 0
-0.053648684 -1.1513864 -0.3339887 0
0.04557097 -1.1590384 -0.33610347 0
0.14467272 -1.1493229 -0.33565673 0
0.24827555 -1.1453539 -0.33661956 0
0.35739952 -1.1557505 -0.3342993 0
0.44684494 -1.1555827 -0.33544186 0
0.54832786 -1.1396776 -0.33587873 0
0.65495521 -1.1421751 -0.33295971 0
0.74681222 -1.149637 -0.33235329 0
0.84494579 -1.1530473 -0.33308348 0
0.9335832 -1.1383168 -0.33431873 0
1.0497893 -1.147777 -0.33321798 0
1.1525695 -1.1470236 -0.3329463 0
1.2464328 -1.1478276 -0.33170122 0
1.3639042 -1.151844 -0.33151582 0
1.4570308 -1.143859 -0.33156797 0
1.5626307 -1.1558846 -0.33106184 0
1.645663 -1.1600287 -0.33114997 0
1.7353423 -1.1519948 -0.33106783 0
1.8403621 -1.1492503 -0.32983851 0
1.9484351 -1.1403791 -0.33004415 0
2.0396297 -1.1549859 -0.3298375 0
2.1392801 -1.1515023 -0.32945687 0
2.2308404 -1.1598481 -0.32914016 0
2.3431284 -1.1653216 -0.32828939 0
2.4261141 -1.1319016 -0.32882524 0
-2.6098726 -1.0186657 -0.34399605 0
-2.5772462 -1.0574285 -0.34425035 0
-2.4562459 -1.0406442 -0.34472364 0
-2.3723259 -1.0657995 -0.34449863 0
-2.2675991 -1.0382819 -0.34424174 0
-2.1603329 -1.0396184 -0.34352243 0
-2.0631919 -1.0540051 -0.3431451 0
-1.9258796 -1.0341586 -0.34252685 0
-1.8600292 -1.0583159 -0.34132203 0
-1.7468506 -1.0393381 -0.34155995 0
-1.6529047 -1.0587196 -0.34185544 0
-1.5486715 -1.0458953 -0.34071064 0
-1.4404054 -1.0457243 -0.34214044 0
-1.3597144 -1.058742 -0.3417753 0
-1.2463087 -1.0525832 -0.34117207 0
-1.1386043 -1.0484992 -0.34059805 0
-1.0396296 -1.0416127 -0.34098139 0
-0.94480914 -1.0460645 -0.34010723 0
-0.85441047 -1.0494307 -0.33907148 0
-0.75063169 -1.0422899 -0.3390457 0
-0.65921187 -1.0535611 -0.33959728 0
-0.54463941 -1.0465796 -0.33880851 0
-0.45710012 -1.0520295 -0.3374573 0
-0.34482527 -1.0459142 -0.33734605 0
-0.25872725 -1.0573477 -0.33664274 0
-0.14393333 -1.0505011 -0.33688071 0
-0.049298789 -1.0580307 -0.3339887 0
0.040632699 -1.0426952 -0.33626363 0
0.15422764 -1.0578498 -0.33432728 0
0.25462288 -1.0512995 -0.33575273 0
0.34806141 -1.0469695 -0.33538637 0
0.45275724 -1.0536449 -0.33536184 0
0.55535573 -1.0613674 -0.33362949 0
0.64896512 -1.0514927 -0.3324683 0
0.73838449 -1.0443538 -0.3338066 0
0.84943962 -1.0431167 -0.33390868 0
0.9674508 -1.0568099 -0.33436266 0
1.0487602 -1.0398802 -0.33476597 0
1.159153 -1.0462559 -0.33274645 0
1.2498065 -1.0461799 -0.33235478 0
1.3373394 -1.0473782 -0.33176586 0
1.4538711 -1.0434711 -0.33220452 0
1.5461991 -1.0603491 -0.33287048 0
1.6539997 -1.0493335 -0.33104858 0
1.7657226 -1.0604601 -0.33012155 0
1.8340645 -1.0421656 -0.33131748 0
1.9313412 -1.0395665 -0.33008024 0
2.0506392 -1.0476177 -0.33025953 0
2.1664937 -1.0488436 -0.32937565 0
2.2759893 -1.0618721 -0.32860538 0
2.3694293 -1.0643673 -0.3286947 0
2.4531119 -1.0601231 -0.32814902 0
-2.6329589 -0.9501847 -0.34557486 0
-2.5257556 -0.92386329 -0.3452518 0
-2.4397738 -0.9522543 -0.3436926 0
-2.3287573 -0.94765121 -0.34389529 0
-2.2351494 -0.94695586 -0.34394887 0
-2.1451006 -0.94526738 -0.34426418 0
-2.0426061 -0.95301205 -0.3435044 0
-1.9501566 -0.94746923 -0.34362358 0
-1.8451874 -0.95924449 -0.34276515 0
-1.7550211 -0.94458503 -0.34172949 0
-1.6562855 -0.95362729 -0.34105992 0
-1.5683658 -0.94847572 -0.34098977 0
-1.4576919 -0.94614059 -0.34039995 0
-1.3386902 -0.94653988 -0.34062403 0
-1.2530564 -0.95496863 -0.3414984 0
-1.1357529 -0.94534183 -0.33960417 0
-1.0494313 -0.9526127 -0.34011739 0
-0.93351793 -0.93686211 -0.34152225 0
-0.84829271 -0.94396937 -0.33899519 0
-0.75705832 -0.95480037 -0.33934268 0
-0.64932644 -0.95080799 -0.33872986 0
-0.55476803 -0.94899845 -0.33995914 0
-0.44094262 -0.95402455 -0.33808401 0
-0.35337231 -0.9500404 -0.33699954 0
-0.24603249 -0.94740611 -0.33673084 0
-0.15549742 -0.9571293 -0.33695701 0
-0.051826976 -0.96409893 -0.33394584 0
0.05713981 -0.95492452 -0.33583212 0
0.14853756 -0.9590596 -0.33568344 0
0.2420122 -0.94312763 -0.33596876 0
0.35346785 -0.94715708 -0.33461115 0
0.44608244 -0.9542982 -0.33620712 0
0.54485291 -0.95423633 -0.33280167 0
0.6428448 -0.95425326 -0.33259544 0
0.75642592 -0.95663655 -0.33400559 0
0.84586614 -0.94825643 -0.33554885 0
0.9479937 -0.95128232 -0.33381072 0
1.0629157 -0.95101172 -0.33344075 0
1.139874 -0.93354416 -0.33271959 0
1.2557564 -0.94293576 -0.33264297 0
1.3701926 -0.96273404 -0.33299062 0
1.4322345 -0.94745284 -0.33214545 0
1.5469205 -0.96285677 -0.33202681 0
1.6404183 -0.94450974 -0.33234388 0
1.7386442 -0.94243211 -0.33110267 0
1.8477691 -0.94395953 -0.33075544 0
1.9537916 -0.94589263 -0.33006439 0
2.0437012 -0.95350391 -0.32952866 0
2.1441562 -0.94474369 -0.3295691 0
2.2323878 -0.96467763 -0.32938218 0
2.3212569 -0.96400541 -0.32890937 0
2.4436691 -0.97399873 -0.32902223 0
2.5074277 -0.9375906 -0.32870084 0
-2.7060206 -0.83874512 -0.34785143 0
-2.6454964 -0.8617022 -0.34623358 0
-2.54708 -0.84983706 -0.34531277 0
-2.4599075 -0.84037811 -0.34508786 0
-2.3681788 -0.84707659 -0.34464183 0
-2.2729633 -0.84984428 -0.34398696 0
-2.1793373 -0.85059923 -0.34339532 0
-2.0416324 -0.84038687 -0.34388092 0
-1.9577036 -0.86296833 -0.34311527 0
-1.8449966 -0.85385805 -0.34279925 0
-1.7267451 -0.85122037 -0.34319052 0
-1.6428318 -0.85712719 -0.34181371 0
-1.5368782 -0.84143364 -0.34065151 0
-1.4577156 -0.84870988 -0.34080076 0
-1.359075 -0.84489095 -0.34052292 0
-1.2466515 -0.84191 -0.34081173 0
-1.1698316 -0.85836345 -0.34043694 0
-1.0494945 -0.84832251 -0.33937022 0
-0.941396 -0.85375839 -0.33943808 0
-0.84475702 -0.84785843 -0.33996269 0
-0.74603033 -0.85065323 -0.33912393 0
-0.64734232 -0.84530354 -0.33947802 0
-0.54314774 -0.84935951 -0.33962452 0
-0.45240948 -0.85178828 -0.33857876 0
-0.34194702 -0.85207653 -0.33781984 0
-0.25732368 -0.85337985 -0.3365503 0
-0.14380978 -0.84018266 -0.33674917 0
-0.051340081 -0.84106791 -0.33467302 0
0.04829957 -0.84257144 -0.33595166 0
0.14147948 -0.84911865 -0.33626536 0
0.2512545 -0.85078335 -0.33499295 0
0.34301293 -0.84359866 -0.33596107 0
0.45009884 -0.85048127 -0.33363515 0
0.5567416 -0.84892142 -0.3322008 0
0.65889686 -0.84858179 -0.33441171 0
0.74653572 -0.84995639 -0.33502564 0
0.85103059 -0.86029869 -0.3326464 0
0.94125408 -0.84473389 -0.33529633 0
1.0472249 -0.8463186 -0.33369094 0
1.1569762 -0.84580833 -0.33299199 0
1.2518816 -0.84545022 -0.33210975 0
1.3475137 -0.85484672 -0.33184743 0
1.4696177 -0.85016781 -0.33303761 0
1.5696008 -0.85940081 -0.33216614 0
1.6601721 -0.84810942 -0.33122587 0
1.7570585 -0.83502752 -0.33097315 0
1.8554586 -0.8549909 -0.330089 0
1.9360523 -0.83676738 -0.33105534 0
2.0666275 -0.85825437 -0.33016124 0
2.1573384 -0.83619338 -0.32995346 0
2.2586551 -0.84089994 -0.32951769 0
2.3626039 -0.86419934 -0.32952502 0
2.454998 -0.85832095 -0.32850263 0
2.5374968 -0.85677493 -0.32888943 0
-2.7171068 -0.75767928 -0.34637025 0
-2.6661148 -0.74346775 -0.34602574 0
-2.5720921 -0.75704211 -0.34580183 0
-2.4579802 -0.73635906 -0.34525821 0
-2.3480344 -0.74626756 -0.34431934 0
-2.2343807 -0.76332819 -0.34394458 0
-2.1235943 -0.75959605 -0.34380245 0
-2.0349231 -0.74429977 -0.3432261 0
-1.9174901 -0.74840015 -0.34319472 0
-1.807838 -0.73568219 -0.34350523 0
-1.7314186 -0.76330489 -0.34271315 0
-1.6422993 -0.74095273 -0.34111089 0
-1.5671061 -0.75235057 -0.34248307 0
-1.4511466 -0.75725728 -0.34096938 0
-1.3594885 -0.74433744 -0.34086663 0
-1.26167 -0.74779707 -0.34086078 0
-1.146409 -0.75057387 -0.3401446 0
-1.0381943 -0.74526608 -0.34001189 0
-0.95540482 -0.76523513 -0.33888406 0
-0.84495556 -0.74528188 -0.3393729 0
-0.74705923 -0.74978334 -0.33976963 0
-0.64874685 -0.7516371 -0.33901867 0
-0.54949355 -0.74832177 -0.33936831 0
-0.4449417 -0.7453326 -0.33993647 0
-0.35857558 -0.75402814 -0.33787632 0
-0.24854657 -0.74753141 -0.33717075 0
-0.15943414 -0.7509343 -0.33660433 0
-0.050970335 -0.74720055 -0.33468977 0
0.051032163 -0.74998796 -0.33598939 0
0.15784743 -0.75892138 -0.33523932 0
0.24472332 -0.7493028 -0.33544379 0
0.36067355 -0.74493337 -0.33493295 0
0.45335114 -0.74531341 -0.33216277 0
0.54504722 -0.74418694 -0.33380795 0
0.64370537 -0.74352705 -0.33446234 0
0.75928187 -0.75317103 -0.33377776 0
0.85101563 -0.76146328 -0.3354063 0
0.95275813 -0.75331497 -0.33387184 0
1.0423232 -0.74248195 -0.33390632 0
1.1504892 -0.73986834 -0.33265939 0
1.2406815 -0.75667822 -0.33325821 0
1.3554579 -0.75488442 -0.33265772 0
1.454514 -0.74312401 -0.33187214 0
1.5433846 -0.74967766 -0.3321951 0
1.6397851 -0.75373256 -0.33181104 0
1.7401459 -0.74605203 -0.33113402 0
1.8564228 -0.73991191 -0.33018428 0
1.9468237 -0.74378085 -0.33010566 0
2.0324361 -0.75988215 -0.32999507 0
2.1326218 -0.74560308 -0.33003387 0
2.2276649 -0.74318504 -0.33015203 0
2.3375244 -0.75235367 -0.3291432 0
2.4572654 -0.75001991 -0.32908928 0
2.5651226 -0.75499034 -0.32832438 0
-2.7329078 -0.63697654 -0.34538305 0
-2.6444519 -0.64319348 -0.34505224 0
-2.5411928 -0.65670705 -0.34502873 0
-2.4455452 -0.65392321 -0.34440389 0
-2.3314807 -0.65015632 -0.34379101 0
-2.2385724 -0.65886742 -0.34332284 0
-2.1512311 -0.64994651 -0.3428019 0
-2.0633848 -0.63956183 -0.34216976 0
-1.9494169 -0.65049303 -0.34266776 0
-1.8411798 -0.64377975 -0.34329528 0
-1.7206153 -0.65740645 -0.3432585 0
-1.612041 -0.64256716 -0.34361643 0
-1.5107832 -0.64028859 -0.34289601 0
-1.4455953 -0.66202974 -0.34041607 0
-1.3316619 -0.6513114 -0.33988291 0
-1.2551819 -0.65433252 -0.34060386 0
-1.1466272 -0.63852745 -0.34104779 0
-1.0579991 -0.6540671 -0.33987898 0
-0.94726312 -0.65964776 -0.3400366 0
-0.84679043 -0.64526248 -0.33976591 0
-0.74988949 -0.65194666 -0.33930022 0
-0.65250427 -0.65488094 -0.33984563 0
-0.55037379 -0.64704067 -0.33915541 0
-0.44712657 -0.64698261 -0.33926484 0
-0.3401854 -0.65173191 -0.33913982 0
-0.25272402 -0.64923561 -0.33720002 0
-0.14537068 -0.6455363 -0.33713984 0
-0.05152728 -0.65201527 -0.33488822 0
0.049309149 -0.65279388 -0.33592975 0
0.14744535 -0.64389348 -0.33587939 0
0.25971919 -0.65448755 -0.33521646 0
0.34365347 -0.64880073 -0.33412269 0
0.44417572 -0.64934731 -0.33306444 0
0.55165082 -0.64846224 -0.33460101 0
0.65002793 -0.64300299 -0.33341688 0
0.74415582 -0.64491165 -0.33488795 0
0.85001165 -0.66027164 -0.33408764 0
0.94485551 -0.64801389 -0.33377272 0
1.0501286 -0.64537114 -0.333336 0
1.1452843 -0.65018684 -0.3329083 0
1.2640023 -0.65197217 -0.33188593 0
1.3576994 -0.65734744 -0.33165282 0
1.448917 -0.6552031 -0.3311868 0
1.5571389 -0.64211959 -0.33086479 0
1.6576927 -0.64694941 -0.33048332 0
1.7423555 -0.65152782 -0.33051822 0
1.8396841 -0.66108924 -0.33070678 0
1.9502507 -0.659661 -0.33101794 0
2.0334845 -0.63730305 -0.33151868 0
2.162637 -0.65350288 -0.33013308 0
2.2483103 -0.64434898 -0.32900286 0
2.3413119 -0.6347509 -0.32883784 0
2.4237607 -0.65710902 -0.3285186 0
2.549413 -0.65225857 -0.32842788 0
2.6116326 -0.62847966 -0.32982206 0
-2.7389374 -0.54802549 -0.34565881 0
-2.6391313 -0.53591841 -0.3455573 0
-2.5436976 -0.55466944 -0.34515366 0
-2.4591 -0.53622437 -0.34488359 0
-2.3668563 -0.55173802 -0.34452724 0
-2.2556403 -0.55150878 -0.34421706 0
-2.144918 -0.5407095 -0.34369087 0
-2.0662141 -0.55229163 -0.34218433 0
-1.9455787 -0.54281807 -0.34233126 0
-1.8605138 -0.54765397 -0.34255323 0
-1.751105 -0.55656344 -0.34241933 0
-1.6416141 -0.54778361 -0.34266776 0
-1.5294774 -0.54707021 -0.34310353 0
-1.4142779 -0.55204028 -0.34358317 0
-1.3056608 -0.531326 -0.34350523 0
-1.2269487 -0.5588659 -0.34137481 0
-1.1376666 -0.56532633 -0.34096837 0
-1.0454955 -0.54778206 -0.34115449 0
-0.94231403 -0.55364841 -0.34019732 0
-0.84836292 -0.54689163 -0.34002244 0
-0.746162 -0.5488739 -0.33979404 0
-0.6530596 -0.54702204 -0.33929807 0
-0.55684835 -0.5481829 -0.33974731 0
-0.45751551 -0.54685944 -0.33945587 0
-0.35627067 -0.54849392 -0.33951965 0
-0.24365215 -0.54961306 -0.33794591 0
-0.15489925 -0.55201566 -0.33686933 0
-0.050765578 -0.55557644 -0.33547768 0
0.041327175 -0.54674959 -0.33577871 0
0.15738361 -0.5483259 -0.33520016 0
0.245188 -0.55118787 -0.33541042 0
0.34789857 -0.54820764 -0.33255309 0
0.44829285 -0.55049139 -0.33468503 0
0.54621518 -0.54814988 -0.33381796 0
0.6472798 -0.5467099 -0.33471125 0
0.74894202 -0.53899711 -0.33390459 0
0.84491467 -0.55935889 -0.33384344 0
0.94777644 -0.5436852 -0.33278474 0
1.0524687 -0.55928767 -0.33188012 0
1.135053 -0.54650319 -0.33242813 0
1.2469916 -0.54428852 -0.33204865 0
1.338227 -0.55569524 -0.33070692 0
1.4600152 -0.54586434 -0.3314476 0
1.5639155 -0.54671752 -0.33084208 0
1.624305 -0.55488807 -0.33062032 0
1.7541896 -0.54370266 -0.33123288 0
1.8633312 -0.5484584 -0.33083078 0
1.9634975 -0.55264693 -0.32994065 0
2.0486426 -0.54206526 -0.32983997 0
2.1646104 -0.55384696 -0.32977861 0
2.2741048 -0.54730242 -0.32940695 0
2.3626106 -0.53281492 -0.32921293 0
2.4462497 -0.55168289 -0.32919109 0
2.5391684 -0.55365515 -0.32905424 0
2.6203468 -0.55175048 -0.32881522 0
-2.7662799 -0.4472422 -0.34617671 0
-2.6545539 -0.44092673 -0.34593207 0
-2.5701597 -0.4458932 -0.34550592 0
-2.4574785 -0.45037436 -0.34558311 0
-2.3522563 -0.43425587 -0.34516254 0
-2.2572412 -0.45868391 -0.34468678 0
-2.1297262 -0.44964635 -0.34431446 0
-2.0266602 -0.45711648 -0.34327817 0
-1.9449393 -0.45332742 -0.34272674 0
-1.8625047 -0.44817647 -0.34195101 0
-1.757259 -0.46273872 -0.34302381 0
-1.6712279 -0.44023451 -0.34144443 0
-1.5539323 -0.44528192 -0.34264088 0
-1.4440928 -0.44766101 -0.34288394 0
-1.3314793 -0.45493239 -0.34292421 0
-1.2204176 -0.44640496 -0.34313583 0
-1.1130351 -0.44386816 -0.34307075 0
-1.0276916 -0.45633528 -0.34204829 0
-0.94503629 -0.45542848 -0.34131917 0
-0.85064566 -0.45781669 -0.3407374 0
-0.75314927 -0.44082546 -0.34030774 0
-0.64956897 -0.44617495 -0.33995205 0
-0.54800004 -0.44949621 -0.33898824 0
-0.4497655 -0.45135891 -0.33978418 0
-0.34982723 -0.44867581 -0.33940619 0
-0.25564444 -0.44726953 -0.33903024 0
-0.14702733 -0.44728658 -0.33703393 0
-0.051641691 -0.46246877 -0.33549973 0
0.053843003 -0.45864412 -0.33568048 0
0.14632301 -0.44526175 -0.33558542 0
0.25784618 -0.44674948 -0.33343577 0
0.35605264 -0.45016867 -0.33395445 0
0.45244122 -0.44918054 -0.33421206 0
0.54825693 -0.45360506 -0.33468202 0
0.6491124 -0.44095513 -0.33393726 0
0.74880958 -0.45358327 -0.33320293 0
0.84906352 -0.44894436 -0.33221418 0
0.95370054 -0.45345765 -0.33305994 0
1.0573717 -0.45664921 -0.33374652 0
1.1573552 -0.44970804 -0.33408499 0
1.2527865 -0.45823362 -0.33260182 0
1.3556867 -0.44750276 -0.33302176 0
1.4495516 -0.46465921 -0.33159652 0
1.5499523 -0.45096979 -0.3316308 0
1.643365 -0.44332054 -0.33179796 0
1.7409004 -0.46140805 -0.33115765 0
1.8520545 -0.44570592 -0.33077946 0
1.9718643 -0.44479296 -0.32960197 0
2.0280535 -0.45734298 -0.32930031 0
2.1233089 -0.44710174 -0.32995069 0
2.2507386 -0.45685568 -0.32944661 0
2.379498 -0.44794041 -0.32867053 0
2.4685984 -0.44640985 -0.32842776 0
2.5527298 -0.46162561 -0.3281844 0
2.6287503 -0.4559871 -0.32759774 0
-2.7577951 -0.37053871 -0.34481129 0
-2.6590223 -0.36377645 -0.3445887 0
-2.573235 -0.35203859 -0.34428978 0
-2.46681 -0.3467364 -0.34421632 0
-2.3484383 -0.34547508 -0.34386906 0
-2.2262681 -0.3534812 -0.34368849 0
-2.1389329 -0.34351707 -0.34343868 0
-2.0555241 -0.35659561 -0.3443054 0
-1.9574207 -0.34557262 -0.34360877 0
-1.8599418 -0.34475806 -0.34337738 0
-1.736547 -0.3549 -0.34204474 0
-1.6500784 -0.3403174 -0.34215179 0
-1.5440019 -0.35467184 -0.34127495 0
-1.4374512 -0.34592652 -0.34223938 0
-1.3589895 -0.35815388 -0.34198663 0
-1.25476 -0.33248749 -0.34050435 0
-1.1427032 -0.34133655 -0.34251562 0
-1.0235604 -0.34970596 -0.34277341 0
-0.91344517 -0.34158319 -0.34338525 0
-0.81952727 -0.35745934 -0.34219375 0
-0.73458868 -0.36243081 -0.34090158 0
-0.64847583 -0.34315005 -0.3409647 0
-0.5471195 -0.35642037 -0.3402431 0
-0.44756904 -0.35151082 -0.33950478 0
-0.34686017 -0.34810627 -0.33951777 0
-0.24259375 -0.34714589 -0.33938059 0
-0.15685323 -0.35278603 -0.33809847 0
-0.048913337 -0.33928093 -0.33587164 0
0.047613688 -0.33878708 -0.33604217 0
0.15696816 -0.34719419 -0.33448768 0
0.24599914 -0.34270424 -0.33340603 0
0.34939578 -0.35011417 -0.33392909 0
0.44895777 -0.35249972 -0.33424735 0
0.55109411 -0.34943438 -0.3333427 0
0.65293378 -0.34625408 -0.33243862 0
0.74462861 -0.35827479 -0.33294594 0
0.84406525 -0.34086987 -0.33392587 0
0.95255762 -0.35619697 -0.33381411 0
1.0477821 -0.34472603 -0.33408606 0
1.1595728 -0.36096346 -0.33383623 0
1.2335021 -0.3425068 -0.3340179 0
1.3672305 -0.35134178 -0.33119419 0
1.4493231 -0.34878483 -0.33216053 0
1.5447252 -0.34840846 -0.33170173 0
1.653975 -0.34392771 -0.33158311 0
1.749277 -0.3552058 -0.33125442 0
1.8474718 -0.3561545 -0.331101 0
1.9545889 -0.34852397 -0.33036196 0
2.046418 -0.35329342 -0.32995734 0
2.1385822 -0.35516003 -0.3295238 0
2.2267416 -0.35342896 -0.32946879 0
2.3359406 -0.3624872 -0.32925862 0
2.4552178 -0.34293014 -0.32886359 0
2.573879 -0.3521589 -0.32820937 0
2.6458149 -0.36200857 -0.32791379 0
-2.235415 -0.28955832 -0.34349754 0
-2.1496558 -0.27844977 -0.34331596 0
-2.0370827 -0.27868178 -0.34279498 0
-1.9298677 -0.26401433 -0.34279498 0
-1.8223573 -0.26263535 -0.34289637 0
-1.7289889 -0.25565714 -0.34287581 0
-1.6328558 -0.24767436 -0.34227201 0
-1.5483875 -0.26846343 -0.34070712 0
-1.4533956 -0.26141354 -0.3400636 0
-1.348832 -0.24837632 -0.34061044 0
-1.2412691 -0.25209752 -0.33945602 0
-1.1491011 -0.24574398 -0.33965003 0
-1.0461611 -0.25010118 -0.34037709 0
-0.94772965 -0.24172054 -0.34006014 0
-0.83819973 -0.24640043 -0.34157723 0
-0.72568685 -0.24730422 -0.34279835 0
-0.61197406 -0.23923117 -0.34276813 0
-0.53039032 -0.25976524 -0.34148878 0
-0.44639933 -0.25783899 -0.34034204 0
-0.34848896 -0.2426205 -0.33983326 0
-0.24829812 -0.24918541 -0.33936289 0
-0.14231627 -0.2515085 -0.33897382 0
-0.053446867 -0.24771842 -0.33614567 0
0.053076908 -0.24690178 -0.3353608 0
0.14142559 -0.24922977 -0.33398691 0
0.24689744 -0.2465301 -0.33445269 0
0.34408915 -0.24187081 -0.33390266 0
0.44633168 -0.25708836 -0.3329536 0
0.5498324 -0.24223879 -0.33341014 0
0.65094382 -0.26098064 -0.33382747 0
0.74747688 -0.24344017 -0.33390856 0
0.85071033 -0.25485837 -0.33359253 0
0.93944782 -0.2415629 -0.33370674 0
1.0526378 -0.25331539 -0.33324248 0
1.1444886 -0.24607794 -0.33278754 0
1.2367926 -0.24836613 -0.33277163 0
1.3525896 -0.24460785 -0.33292586 0
1.436191 -0.25583899 -0.33310354 0
1.5549837 -0.24467024 -0.33277643 0
1.670017 -0.24534914 -0.33185461 0
1.7667663 -0.2546854 -0.33136064 0
1.8436381 -0.25223109 -0.33066049 0
1.9400104 -0.25417477 -0.33072704 0
2.0557604 -0.24768238 -0.33052474 0
2.1587632 -0.24823511 -0.33033636 0
2.245333 -0.24190821 -0.32989192 0
2.3302114 -0.25105369 -0.32950613 0
2.4150898 -0.26019916 -0.3291204 0
2.555017 -0.24563956 -0.3287015 0
2.6596913 -0.2481997 -0.32800975 0
-1.5047591 -0.19491485 -0.34331596 0
-1.3972762 -0.18099235 -0.34331596 0
-1.2643114 -0.18188782 -0.34284887 0
-1.1528152 -0.17418835 -0.34173447 0
-1.0611174 -0.16839471 -0.34126896 0
-0.9605366 -0.16305105 -0.34075636 0
-0.84231764 -0.15724237 -0.34061015 0
-0.75265849 -0.15512443 -0.33988363 0
-0.65069878 -0.14767973 -0.34016839 0
-0.53311366 -0.14923 -0.34175831 0
-0.42668873 -0.14170054 -0.34147277 0
-0.32202935 -0.14929526 -0.34187418 0
-0.24381603 -0.15011485 -0.34034318 0
-0.14834175 -0.14886081 -0.33941293 0
-0.045171116 -0.14507368 -0.33720258 0
0.04458943 -0.14544207 -0.33506599 0
0.1489886 -0.14836672 -0.33415177 0
0.24835733 -0.14069857 -0.33325946 0
0.34902135 -0.15601577 -0.33320197 0
0.44571891 -0.14473699 -0.3338418 0
0.54834682 -0.16004191 -0.33359456 0
0.63933867 -0.14472511 -0.33328858 0
0.75279349 -0.15216863 -0.33283034 0
0.84681237 -0.14333177 -0.33370653 0
0.95080811 -0.15070133 -0.33298594 0
1.0505756 -0.15709998 -0.33220148 0
1.1399318 -0.14773168 -0.33306989 0
1.2494824 -0.14746025 -0.33213425 0
1.3457807 -0.1532371 -0.33184287 0
1.4389019 -0.15218046 -0.33065572 0
1.5570611 -0.14172496 -0.33035335 0
1.6759977 -0.1443298 -0.3304427 0
1.773229 -0.15271014 -0.33064112 0
1.852513 -0.15953146 -0.33075193 0
1.930818 -0.15230946 -0.33069733 0
2.0610192 -0.14771539 -0.33111063 0
2.1711748 -0.13998902 -0.33046529 0
2.2560446 -0.14546417 -0.32978407 0
2.3409145 -0.1509393 -0.3291029 0
2.4257841 -0.15641445 -0.32842174 0
2.5325131 -0.15398145 -0.32750744 0
2.63708 -0.15737437 -0.3266938 0
-0.7523793 -0.097457394 -0.34331596 0
-0.6321556 -0.09094388 -0.34284887 0
-0.53871286 -0.081698313 -0.34173447 0
-0.44793272 -0.078616209 -0.34063745 0
-0.33580285 -0.073216096 -0.34043103 0
-0.22446957 -0.061790638 -0.34177652 0
-0.13222635 -0.053243443 -0.34091082 0
-0.045062743 -0.05324826 -0.338752 0
0.046963573 -0.047223341 -0.33414799 0
0.14424661 -0.044280808 -0.33314112 0
0.24684176 -0.054874223 -0.33328217 0
0.33638641 -0.04731844 -0.33286196 0
0.45856285 -0.050675642 -0.33259064 0
0.55128205 -0.049375534 -0.3327069 0
0.6477375 -0.048778646 -0.33259186 0
0.75181961 -0.052645538 -0.33179387 0
0.83808643 -0.04763256 -0.33262524 0
0.9540047 -0.052608073 -0.33203977 0
1.0520838 -0.05463741 -0.33226988 0
1.1504097 -0.045793589 -0.33278897 0
1.23909 -0.053193808 -0.33241725 0
1.341314 -0.048046835 -0.33243635 0
1.4411403 -0.049973942 -0.33195692 0
1.5485809 -0.044258691 -0.33174515 0
1.6758832 -0.035814598 -0.33014163 0
1.7407383 -0.062070288 -0.33095211 0
1.8581922 -0.053261366 -0.33073938 0
1.9377887 -0.05553855 -0.33089438 0
2.0658274 -0.044381015 -0.33111301 0
2.175544 -0.046728116 -0.33064857 0
2.2607505 -0.048556853 -0.33012164 0
2.3459566 -0.050385591 -0.3295947 0
2.4311631 -0.052214328 -0.32906774 0
2.536659 -0.054475848 -0.32838956 0
2.6418738 -0.056720089 -0.32778817 0
-0.75612652 0.097942784 -0.34502587 0
-0.6338219 0.091166474 -0.34373271 0
-0.53452009 0.083287351 -0.3436268 0
-0.44238067 0.077747233 -0.34148395 0
-0.33763954 0.07363192 -0.3422913 0
-0.22633681 0.060779296 -0.34257632 0
-0.13503931 0.053652141 -0.34158042 0
-0.046130612 0.053491477 -0.33957845 0
0.011228561 0.011256994 -0.33630657 0
0.14477012 0.044536401 -0.33276436 0
0.24932674 0.056497544 -0.33252102 0
0.33803245 0.045129064 -0.33245045 0
0.45798463 0.05051621 -0.33215806 0
0.55140597 0.04929385 -0.33279127 0
0.64875996 0.04883093 -0.33311263 0
0.74395955 0.047979642 -0.33315551 0
0.83549631 0.050954763 -0.33320478 0
0.95674139 0.052839901 -0.33299941 0
1.0495437 0.050844278 -0.33384347 0
1.1503948 0.049522411 -0.33364809 0
1.2436699 0.053537741 -0.33364806 0
1.3408033 0.048042685 -0.33209985 0
1.4384815 0.056785632 -0.33107933 0
1.544831 0.044317555 -0.33148012 0
1.6658349 0.035661016 -0.33035979 0
1.7378111 0.057147212 -0.33180931 0
1.8619999 0.053422444 -0.33111888 0
1.9413397 0.055693202 -0.33104333 0
2.0654204 0.041374382 -0.33029714 0
2.1695311 0.046558168 -0.32989079 0
2.2549679 0.048392903 -0.32959536 0
2.3404047 0.050227627 -0.32930002 0
2.4258416 0.052062351 -0.32900462 0
2.544337 0.062052738 -0.32848984 0
2.6544309 0.047670901 -0.32834584 0
-1.5122535 0.19588561 -0.34502587 0
-1.4042354 0.18189378 -0.34502587 0
-1.2676442 0.18233299 -0.34373271 0
-1.1593041 0.17522258 -0.34366652 0
-1.0556903 0.16999453 -0.3426021 0
-0.95685732 0.16183206 -0.34157711 0
-0.84513241 0.15674287 -0.34165964 0
-0.75180984 0.15263401 -0.34204003 0
-0.65431428 0.14852501 -0.34207559 0
-0.53405011 0.15086241 -0.34254333 0
-0.43279472 0.13347885 -0.3424738 0
-0.33158001 0.1537815 -0.34139448 0
-0.24669299 0.14793192 -0.34060341 0
-0.14944987 0.14908279 -0.33964118 0
-0.045322668 0.14572795 -0.33866411 0
0.044138823 0.14581412 -0.3363443 0
0.1490332 0.14972535 -0.33463928 0
0.24931489 0.14192334 -0.33325917 0
0.34896615 0.15939918 -0.33302912 0
0.44438702 0.14429484 -0.33285016 0
0.55182523 0.16070956 -0.33235082 0
0.6408782 0.14113654 -0.33168894 0
0.75207508 0.15039381 -0.33139011 0
0.84660828 0.14354831 -0.33152062 0
0.94638747 0.14996281 -0.33142823 0
1.0577382 0.16036683 -0.33086973 0
1.143109 0.14158192 -0.3319636 0
1.2491344 0.15406211 -0.33219624 0
1.3510424 0.14011891 -0.33325192 0
1.4334444 0.15435158 -0.33312532 0
1.5493875 0.14943641 -0.33298326 0
1.6690027 0.15601666 -0.33232415 0
1.7352962 0.14205118 -0.33209628 0
1.8599474 0.16013256 -0.33105853 0
1.9401731 0.15307437 -0.33070549 0
2.0532053 0.15612593 -0.33021 0
2.1441555 0.1261517 -0.33180422 0
2.2571733 0.14547694 -0.33024749 0
2.3422501 0.15096596 -0.32974163 0
2.4273272 0.15645498 -0.32923582 0
2.5326941 0.16327623 -0.32863846 0
2.648453 0.1455445 -0.32816276 0
-2.2461264 0.29094583 -0.34516004 0
-2.1603622 0.2798366 -0.34502587 0
-2.0456266 0.27983895 -0.3442325 0
-1.9379621 0.26511058 -0.3442325 0
-1.8270311 0.26325852 -0.34374747 0
-1.7303766 0.27056417 -0.34256366 0
-1.6380005 0.24844246 -0.34292406 0
-1.5451589 0.25914603 -0.34217408 0
-1.4550884 0.26845521 -0.34180015 0
-1.3520414 0.24893735 -0.34160379 0
-1.2472914 0.25334033 -0.34110451 0
-1.1520773 0.25109193 -0.34166658 0
-1.0439656 0.25220129 -0.34287483 0
-0.95491755 0.23940191 -0.34232378 0
-0.83908355 0.24278636 -0.34330076 0
-0.72852296 0.24240735 -0.34277868 0
-0.62300986 0.24918666 -0.34205762 0
-0.54275292 0.26043287 -0.34117386 0
-0.45214984 0.25477904 -0.34093329 0
-0.35036054 0.24305849 -0.33995241 0
-0.24980852 0.24714862 -0.33933672 0
-0.14352933 0.25089589 -0.33962211 0
-0.050881855 0.24553879 -0.33820066 0
0.050464891 0.24416831 -0.33644748 0
0.1422016 0.25056425 -0.33581558 0
0.24902503 0.24753238 -0.33484912 0
0.34719446 0.24797869 -0.33342472 0
0.4474763 0.25759554 -0.33311012 0
0.54748726 0.24289252 -0.3335726 0
0.65242928 0.26010019 -0.33297738 0
0.74813151 0.24178939 -0.33285046 0
0.85241222 0.25751141 -0.33255225 0
0.94474316 0.23764697 -0.33263597 0
1.0532042 0.24969462 -0.33230546 0
1.1501573 0.25090668 -0.33213225 0
1.2290555 0.24690028 -0.33088252 0
1.3465008 0.24356738 -0.33182245 0
1.4355009 0.25476432 -0.3322295 0
1.5605365 0.24781516 -0.33105773 0
1.6676837 0.24486539 -0.33141616 0
1.7661664 0.25441524 -0.331265 0
1.8499292 0.25305733 -0.33144626 0
1.9293853 0.24989757 -0.33068335 0
2.0477333 0.25040638 -0.32982153 0
2.151386 0.24748391 -0.32928213 0
2.2369764 0.24110456 -0.3288635 0
2.3220043 0.25026596 -0.32865211 0
2.4400957 0.25575802 -0.32818991 0
2.5790157 0.24057376 -0.32771865 0
2.6557996 0.24775773 -0.32752892 0
-2.7669201 0.37174818 -0.34553811 0
-2.6673324 0.36489576 -0.34514576 0
-2.5555789 0.34354076 -0.34518325 0
-2.4473712 0.35296354 -0.34433591 0
-2.3383946 0.34571159 -0.34402412 0
-2.2383664 0.36371782 -0.34258205 0
-2.1353316 0.33892471 -0.34249479 0
-2.0520709 0.35599747 -0.34241033 0
-1.9710841 0.35649687 -0.34263468 0
-1.8577033 0.34174389 -0.34269118 0
-1.7342968 0.36661312 -0.34290466 0
-1.6564553 0.34157643 -0.34319967 0
-1.5502731 0.34968892 -0.34174827 0
-1.4431227 0.34636718 -0.34333977 0
-1.3515793 0.34755659 -0.34331542 0
-1.2537545 0.34004647 -0.34328645 0
-1.1431255 0.34142965 -0.34263247 0
-1.0238142 0.34972987 -0.34285221 0
-0.91432887 0.33447739 -0.34277102 0
-0.83594978 0.35485867 -0.34226459 0
-0.74804854 0.3612701 -0.34057376 0
-0.64925367 0.3458578 -0.34081072 0
-0.5506928 0.35487238 -0.34071058 0
-0.45327887 0.3506766 -0.33971727 0
-0.34939131 0.34665766 -0.33971354 0
-0.2427956 0.3474718 -0.33969733 0
-0.1530243 0.34953389 -0.33926803 0
-0.051392742 0.33920649 -0.33776641 0
0.049827144 0.33738849 -0.33652601 0
0.15389618 0.3484855 -0.33624348 0
0.24159306 0.34658301 -0.33540839 0
0.3446357 0.3458679 -0.33503297 0
0.4489657 0.36017519 -0.33396089 0
0.54647648 0.34670585 -0.33248821 0
0.64315426 0.34464496 -0.33355716 0
0.74826604 0.36225674 -0.3337256 0
0.84486955 0.3438023 -0.3334206 0
0.94934827 0.35369971 -0.332555 0
1.0435343 0.34498578 -0.33290201 0
1.1639134 0.35497242 -0.33236906 0
1.2494048 0.34137139 -0.3336359 0
1.3616949 0.36127669 -0.33246547 0
1.4328204 0.34482095 -0.33239987 0
1.5466621 0.34887758 -0.33136517 0
1.6483728 0.35052612 -0.32997179 0
1.7422068 0.35387591 -0.33000147 0
1.8468977 0.35706708 -0.3294102 0
1.9586893 0.33972338 -0.32993913 0
2.0521071 0.35591093 -0.3299157 0
2.1407363 0.3555564 -0.32997888 0
2.2306249 0.33777574 -0.32971311 0
2.3350332 0.36236683 -0.32919228 0
2.4549618 0.34287709 -0.32935077 0
2.574939 0.35227498 -0.32902667 0
2.6540027 0.34378153 -0.32860094 0
-2.8614464 0.49635065 -0.34393632 0
-2.7585566 0.45140898 -0.34498024 0
-2.6420178 0.45830217 -0.34481612 0
-2.5565987 0.44348419 -0.34440342 0
-2.4666147 0.44611996 -0.34406346 0
-2.3799829 0.4480783 -0.34358236 0
-2.2515998 0.45732012 -0.34377918 0
-2.1225202 0.45133063 -0.34415638 0
-2.0356092 0.44387093 -0.34393975 0
-1.9498311 0.45449814 -0.34366217 0
-1.8717122 0.45051661 -0.34361714 0
-1.7409652 0.45328045 -0.34358472 0
-1.6492562 0.44736022 -0.3438102 0
-1.5526509 0.43785769 -0.3445639 0
-1.4440876 0.44764861 -0.34287849 0
-1.3298647 0.45433068 -0.34250444 0
-1.2191054 0.44596991 -0.34277102 0
-1.1156576 0.43948326 -0.342879 0
-1.0426897 0.46259809 -0.34150001 0
-0.95519131 0.45591819 -0.34111819 0
-0.85059768 0.45274511 -0.34067604 0
-0.74622715 0.4417606 -0.34084269 0
-0.64685315 0.45346519 -0.33989114 0
-0.55055422 0.45618507 -0.33957881 0
-0.44909349 0.44582647 -0.33958796 0
-0.35033569 0.44937879 -0.33990097 0
-0.25691861 0.44998866 -0.33924493 0
-0.1496767 0.44866785 -0.33943778 0
-0.056097932 0.45035273 -0.33675635 0
0.055513382 0.45571816 -0.33609343 0
0.14670838 0.44643274 -0.33645436 0
0.25740141 0.44349393 -0.33573002 0
0.35602045 0.4502309 -0.33495015 0
0.45513862 0.45476478 -0.33524817 0
0.55451292 0.44834611 -0.33430818 0
0.65069449 0.44635227 -0.33281168 0
0.74895185 0.45807406 -0.33260056 0
0.85375875 0.45173657 -0.33405152 0
0.94636863 0.43973476 -0.33342874 0
1.0527703 0.45970041 -0.33367097 0
1.1502626 0.44641027 -0.33306661 0
1.2440937 0.4580448 -0.33251175 0
1.3529731 0.45434916 -0.33284748 0
1.4448967 0.44789541 -0.33227605 0
1.5501798 0.45094576 -0.33160043 0
1.63885 0.45287383 -0.33155379 0
1.7465545 0.45569596 -0.33055422 0
1.85536 0.44651729 -0.33053049 0
1.9655375 0.4433004 -0.3293331 0
2.0274513 0.45736039 -0.32920781 0
2.1480987 0.45890504 -0.3289142 0
2.2493308 0.44037718 -0.32924157 0
2.3573184 0.45266223 -0.32951808 0
2.4702699 0.44669533 -0.32911798 0
2.5545266 0.46193504 -0.32897913 0
2.6415913 0.44851908 -0.32920033 0
-3.3516736 0.58138615 -0.33544612 0
-3.2179751 0.55819464 -0.33776164 0
-3.1265845 0.56543195 -0.33811438 0
-3.0379269 0.54940158 -0.34005648 0
-2.940469 0.55346197 -0.34089431 0
-2.847599 0.55710673 -0.34271818 0
-2.7420022 0.54514539 -0.34531432 0
-2.6297221 0.55374366 -0.34476167 0
-2.5469227 0.55545539 -0.34529519 0
-2.4624038 0.53702575 -0.34511468 0
-2.3726871 0.55307198 -0.34553277 0
-2.2646861 0.55374229 -0.34566027 0
-2.1336141 0.54587275 -0.34435022 0
-2.0616715 0.55242187 -0.34415847 0
-1.955228 0.545461 -0.34438419 0
-1.864226 0.54880929 -0.34356168 0
-1.7531643 0.55712104 -0.34281662 0
-1.6413953 0.54770494 -0.3426218 0
-1.5270805 0.54624319 -0.34256795 0
-1.4164035 0.54119635 -0.34312135 0
-1.3379372 0.54497087 -0.34324524 0
-1.2486207 0.56536961 -0.34122556 0
-1.1372386 0.55673009 -0.34090164 0
-1.0482509 0.54756421 -0.3404094 0
-0.95545661 0.55904639 -0.34106848 0
-0.85009259 0.54798794 -0.34075272 0
-0.75102717 0.54447454 -0.33976671 0
-0.64839065 0.55527925 -0.33903798 0
-0.547723 0.54968292 -0.33963123 0
-0.45537001 0.55116463 -0.33970997 0
-0.35583705 0.55110216 -0.33937576 0
-0.24520929 0.55258763 -0.33955732 0
-0.15063384 0.54743642 -0.33856553 0
-0.047201268 0.5378924 -0.33803138 0
0.040693428 0.5440172 -0.33714923 0
0.1534325 0.54272348 -0.33630759 0
0.24514392 0.54862475 -0.3368091 0
0.35185009 0.55016255 -0.33530805 0
0.45077631 0.54888338 -0.33407494 0
0.54864603 0.55070972 -0.33534846 0
0.65114266 0.54742849 -0.33434924 0
0.75040382 0.55376333 -0.33339691 0
0.84967518 0.5530864 -0.33213216 0
0.95203966 0.54482609 -0.33342794 0
1.0531234 0.55194926 -0.3335081 0
1.1383189 0.55098611 -0.33371964 0
1.2464801 0.54413831 -0.33250803 0
1.3375996 0.5521971 -0.33185408 0
1.4437087 0.54830348 -0.33234924 0
1.5596285 0.54832429 -0.33143002 0
1.6346786 0.54874265 -0.33132344 0
1.7563834 0.54436046 -0.33120477 0
1.8646799 0.54888475 -0.3309662 0
1.9483037 0.54327726 -0.33124 0
2.0282991 0.55399036 -0.33136904 0
2.1493928 0.54998845 -0.33056557 0
2.2754033 0.54759973 -0.32918796 0
2.3607783 0.55027592 -0.32882565 0
2.4451935 0.55157286 -0.32870945 0
2.5312502 0.55196041 -0.32886347 0
2.6221681 0.54427367 -0.32914788 0
-3.7082176 0.64323282 -0.32927117 0
-3.648294 0.6596874 -0.32673359 0
-3.5698726 0.64558387 -0.32840401 0
-3.481215 0.62955356 -0.33034611 0
-3.3498917 0.64723581 -0.32893416 0
-3.2425847 0.63470852 -0.33102322 0
-3.1839406 0.67045414 -0.32803667 0
-3.0537829 0.64305347 -0.33315015 0
-2.9233918 0.65942442 -0.33740908 0
-2.8378978 0.64014399 -0.34193069 0
-2.7454937 0.63999814 -0.34676003 0
-2.6380205 0.65479684 -0.34651041 0
-2.5200617 0.6639834 -0.34537137 0
-2.4363673 0.6419332 -0.34514558 0
-2.3441975 0.65368593 -0.34485659 0
-2.2481749 0.66166717 -0.34426117 0
-2.1564989 0.6514082 -0.34342587 0
-2.0669818 0.64056176 -0.34276089 0
-1.949157 0.65039957 -0.34262183 0
-1.8369733 0.64230067 -0.34251037 0
-1.7199185 0.65716702 -0.34312135 0
-1.6131946 0.62969518 -0.34287313 0
-1.5443193 0.65452069 -0.342949 0
-1.4512907 0.66016299 -0.34204373 0
-1.3341011 0.65259558 -0.34195295 0
-1.2477744 0.65381336 -0.34206334 0
-1.1463419 0.63841259 -0.34105444 0
-1.0654596 0.66236645 -0.34110495 0
-0.95417553 0.65202951 -0.34001079 0
-0.8562085 0.65264428 -0.33955881 0
-0.75820303 0.64031291 -0.33886388 0
-0.65747935 0.65393895 -0.34018114 0
-0.55039018 0.64704508 -0.33915517 0
-0.44802549 0.64826143 -0.33993337 0
-0.33997071 0.65608275 -0.33965901 0
-0.24667972 0.64520973 -0.33944717 0
-0.15011099 0.64381212 -0.33850443 0
-0.051943887 0.6564433 -0.33717594 0
0.049923643 0.65104735 -0.33610293 0
0.14911017 0.63972861 -0.33636239 0
0.25941625 0.65357012 -0.33634394 0
